-5.08950 -5.13305 22.77650
-5.47950 -5.13305 22.75950
-5.88550 -5.13405 22.74850
-6.29150 -5.13405 22.79450
-6.68150 -5.13495 22.78350
-7.08640 -5.38495 22.78350
-7.47650 -5.38595 22.73650
-7.88250 -5.38595 22.74650
-8.28850 -5.38595 22.74950
-8.67750 -5.63695 22.75150
-9.08350 -5.63695 22.69050
-9.47350 -5.63805 22.70750
-9.86360 -5.63805 22.76450
-10.26960 -5.88905 22.74750
-10.67450 -5.88905 22.72050
-11.06450 -5.88995 22.77650
-11.47050 -5.88995 22.80250
-11.86050 -6.14095 22.81150
-12.26650 -6.14095 22.74450
-12.67150 -6.14095 22.69450
-13.06160 -6.14195 22.74250
-13.46760 -6.39195 22.73750
-13.85740 -6.39305 22.67450
-14.26340 -6.39305 22.66150
-14.66850 -6.39405 22.66050
-15.05850 -6.64405 22.71450
-15.46450 -6.64495 22.62750
-15.74550 -6.39495 19.32850
-16.13550 -6.39495 19.45350
-16.52550 -6.64595 19.53950
-16.94640 -6.64595 19.49650
-17.33650 -6.64595 19.50150
-17.74250 -6.64695 19.46650
-18.14850 -6.64695 19.46850
-18.55350 -6.89805 19.49650
-18.95950 -6.89805 19.45350
-19.36550 -6.89905 19.31750
-19.77050 -6.89905 19.30950
-20.17650 -7.14995 19.33950
-20.58140 -7.14995 19.33450
-20.97150 -7.14995 19.32250
-21.37750 -7.15095 19.34350
-21.78250 -7.40195 19.35650
-22.18850 -7.40195 19.36850
-22.57850 -7.40195 19.33750
-22.98450 -7.40295 19.37750
-23.38950 -7.65295 19.32750
-23.79560 -7.65405 19.37550
-24.20140 -7.65405 19.33950
-24.59140 -7.65495 19.33650
-25.01250 -7.90495 19.34550
-25.40250 -7.90595 19.31750
-25.76150 -7.90595 19.70750
-26.05750 -7.90595 20.75650
-25.80850 -7.65595 19.39250
-25.40250 -7.65495 19.37250
-24.99750 -7.65495 19.35250
-24.59140 -7.65495 19.36350
-24.20140 -7.40405 19.34250
-23.79650 -7.40295 19.34550
-23.39050 -7.40295 19.34750
-22.98450 -7.40295 19.35750
-22.57950 -7.15195 19.35050
-22.18950 -7.15195 19.33050
-21.78350 -7.15095 19.35950
-21.37750 -7.15095 19.34550
-20.97240 -6.89995 19.35450
-20.58250 -6.89995 19.35750
-20.17650 -6.89905 19.34750
-19.77050 -6.89905 19.33250
-19.36550 -6.64805 19.38050
-18.95950 -6.64805 19.49350
-18.55450 -6.64805 19.47550
-18.16440 -6.64695 19.50950
-17.74350 -6.39695 19.51750
-17.35350 -6.39595 19.51750
-16.94750 -6.39595 19.50350
-16.57250 -6.39495 19.31750
-16.16750 -6.14495 19.30150
-15.48050 -6.39405 22.66750
-15.09050 -6.39405 22.67450
-14.68540 -6.14305 22.69950
-14.27940 -6.14305 22.68050
-13.88960 -6.14305 22.66950
-13.49840 -6.14195 22.71750
-13.09350 -5.89195 22.72250
-12.70350 -5.89095 22.79450
-12.29750 -5.89095 22.81950
-11.89250 -5.88995 22.72750
-11.50250 -5.63995 22.72550
-11.11240 -5.63905 22.70650
-10.70640 -5.63905 22.70350
-10.31660 -5.63905 22.74550
-9.91060 -5.63805 22.74050
-9.52150 -5.38805 22.71850
-9.11550 -5.38695 22.71850
-8.72550 -5.38695 22.71950
-8.31950 -5.38595 22.81050
-7.92950 -5.13595 22.75050
-7.53940 -5.13495 22.78750
-7.13340 -5.13495 22.76750
-6.72850 -5.13495 22.77450
-6.33850 -4.88405 22.79350
-5.94850 -4.88405 22.77450
-5.54250 -4.88305 22.88550
-5.15250 -4.88305 22.88450
-4.74750 -4.63195 22.89650
-4.35740 -4.63195 22.87950
-3.96750 -4.63095 22.83750
-3.56160 -4.63095 22.74650
-3.15650 -4.37995 22.82450
-2.76550 -4.37995 22.80150
-2.37550 -4.37995 22.75850
-1.97050 -4.37895 22.78350
-1.58050 -4.12895 22.84150
-1.17450 -4.12805 22.85150
-0.76850 -4.12805 22.79050
-0.37840 -4.12695 22.79650
0.01050 -3.87695 22.76650
0.41650 -3.87595 22.78050
0.80650 -3.87595 22.82850
1.19650 -3.87595 22.74350
1.60150 -3.62495 22.79950
2.00750 -3.62495 22.86750
2.39760 -3.62405 22.87150
2.80360 -3.62405 22.87350
3.19350 -3.37305 22.79650
3.58350 -3.37305 22.76950
3.98950 -3.37205 22.74950
4.37950 -3.37205 22.76050
4.76850 -3.12095 22.72750
5.17450 -3.12095 22.79150
5.58050 -3.12095 22.77350
5.97060 -3.11995 22.80350
6.36050 -2.86895 22.73850
6.76550 -2.86895 22.73650
7.15650 -2.86895 22.73550
7.56150 -2.86805 22.74450
7.95150 -2.61805 22.74350
8.35750 -2.61705 22.71850
8.74750 -2.61705 22.71150
9.15350 -2.61705 22.72950
9.54360 -2.61595 22.80450
9.93250 -2.36595 22.81650
10.33850 -2.36495 22.83250
10.74450 -2.36495 22.71750
11.11850 -2.36395 22.69050
11.52350 -2.11395 22.71550
11.92950 -2.11305 22.71150
12.31960 -2.11305 22.68750
12.71060 -2.11305 22.70350
13.09950 -1.86205 22.59050
13.44250 -1.61095 19.31950
13.84850 -1.61095 19.32950
14.25350 -1.61095 19.30950
14.64350 -1.35995 19.35050
15.06550 -1.60995 21.22250
15.47060 -1.35895 21.09750
15.84560 -1.35895 19.31750
16.25050 -1.10795 19.29550
16.64050 -1.10795 19.31050
17.04650 -1.10705 19.28350
17.45150 -1.10705 19.32950
17.84150 -0.85595 19.34550
18.24750 -0.85595 19.26950
18.63760 -0.85495 19.28750
19.04360 -0.85495 19.24750
19.44850 -0.60395 19.33950
19.83850 -0.60395 19.28850
20.24450 -0.60395 19.26150
20.63450 -0.60295 19.25050
21.03950 -0.35295 19.29250
21.44550 -0.35205 19.25450
21.83560 -0.35205 19.25250
22.24160 -0.35105 19.29550
22.63050 -0.10105 19.26450
23.03650 -0.09995 19.26750
23.44250 -0.09995 19.23950
23.83250 -0.09995 20.74850
23.86350 0.15105 16.21050
24.26850 0.15105 16.31250
24.48250 2.40395 -12.86550
24.90350 2.40395 -12.61850
25.32460 2.40505 -10.75450
25.74660 2.40505 -10.50050
26.18350 2.40505 -10.70550
26.38250 3.90705 -29.16150
26.61550 4.40795 -29.16450
25.97950 2.90605 -11.69750
25.55750 2.90505 -11.79650
25.12050 2.90505 -12.58250
24.47060 0.65205 16.22250
24.69960 2.90505 -12.60150
24.03450 0.40105 20.77050
24.08050 0.65105 15.37750
23.64450 0.40105 19.34850
23.23850 0.40005 19.20450
22.84850 0.15005 19.25050
22.44350 0.14895 19.28150
22.03750 0.14895 19.24650
21.63150 0.14895 19.29350
21.24160 -0.10205 19.25850
20.83650 -0.10295 19.28350
20.44650 -0.10295 19.30450
20.04050 -0.10295 19.27550
19.63550 -0.35395 19.31950
19.24450 -0.35395 19.31450
18.83950 -0.35495 19.28450
18.44960 -0.35495 19.35450
18.04360 -0.60595 19.37450
17.63850 -0.60595 19.38050
17.24750 -0.60705 19.37950
16.84250 -0.60705 19.37850
16.43650 -0.60705 19.33550
16.03150 -0.85795 19.34850
15.64150 -0.85795 19.47050
15.26760 -1.10895 21.23750
14.84560 -0.85895 19.47050
14.43960 -1.10995 19.31750
14.03450 -1.10995 19.34650
13.64450 -1.11095 19.26150
13.30150 -1.36095 22.66450
12.91150 -1.61205 22.68250
12.50640 -1.61205 22.70150
12.11550 -1.61305 22.68750
11.72560 -1.61305 22.67650
11.32050 -1.86395 22.71350
10.93050 -1.86395 22.70850
10.54050 -1.86395 22.75150
10.13450 -1.86495 22.71250
9.74450 -2.11495 22.73350
9.35450 -2.11595 22.72450
8.94850 -2.11595 22.74650
8.54360 -2.11705 22.78550
8.15350 -2.36705 22.84850
7.76350 -2.36805 22.82850
7.35750 -2.36805 22.85150
6.96750 -2.36805 22.70650
6.57750 -2.36895 22.74950
6.17250 -2.61895 22.76650
5.78250 -2.61995 22.73950
5.37660 -2.61995 22.77150
4.98660 -2.62095 22.76750
4.58050 -2.87095 22.75550
4.19050 -2.87205 22.80450
3.80050 -2.87205 22.73450
3.41050 -2.87205 22.79050
3.00550 -3.12305 22.75850
2.61550 -3.12305 22.77850
2.20940 -3.12405 22.77750
1.81960 -3.12405 22.81550
1.41450 -3.37495 22.78250
1.02350 -3.37495 22.79950
0.63350 -3.37595 22.89850
0.22850 -3.37595 22.88350
-0.16150 -3.62695 22.89150
-0.56750 -3.62695 22.84250
-0.97350 -3.62695 22.79150
-1.36360 -3.62805 22.77350
-1.76850 -3.87805 22.75350
-2.15850 -3.87895 22.89250
-2.54850 -3.87895 22.82550
-2.95450 -3.87995 22.81850
-3.36050 -3.87995 22.76250
-3.74950 -4.13095 22.75650
-4.15550 -4.13095 22.75850
-4.54560 -4.13095 22.78550
-4.95140 -4.13195 22.73350
-5.34140 -4.38195 22.78150
-5.73150 -4.38305 22.74250
-6.13650 -4.38305 22.77550
-6.54250 -4.38405 22.76950
-6.93250 -4.63405 22.89150
-7.32250 -4.63495 22.87350
-7.72850 -4.63495 22.87950
-8.13340 -4.63495 22.75250
-8.53940 -4.88595 22.72650
-8.92950 -4.88595 22.73250
-9.33550 -4.88695 22.66550
-9.72550 -4.88695 22.73250
-10.13050 -5.13805 22.70750
-10.53650 -5.13805 22.63050
-10.92650 -5.13905 22.71350
-11.31660 -5.13905 22.73250
-11.72150 -5.38995 22.73150
-12.11150 -5.38995 22.67350
-12.51750 -5.38995 22.69350
-12.92350 -5.39095 22.69150
-13.31350 -5.39095 22.68650
-13.71850 -5.64195 22.71550
-14.10850 -5.64195 22.65950
-14.49840 -5.64305 22.80050
-14.90440 -5.64305 22.79550
-15.32550 -5.89405 22.64850
-15.99750 -5.64405 19.29350
-16.41850 -5.64405 19.29450
-16.80850 -5.89495 19.36550
-17.21350 -5.89495 19.33950
-17.60350 -5.89595 19.34150
-18.02550 -5.89595 19.34450
-18.41440 -6.14695 19.44950
-18.80540 -6.14695 19.50750
-19.22650 -6.14805 19.36250
-19.63250 -6.14805 19.32950
-20.03750 -6.39905 19.34850
-20.44350 -6.39905 19.33850
-20.83350 -6.39905 19.35150
-21.23950 -6.39995 19.34950
-21.64460 -6.65095 19.34550
-22.04950 -6.65095 19.33450
-22.45550 -6.65095 19.33650
-22.84550 -6.65195 19.36550
-23.25150 -6.90195 19.33850
-23.65650 -6.90295 19.32950
-24.06250 -6.90295 19.33750
-24.46850 -6.90405 19.31950
-24.87340 -7.15405 19.33550
-25.26350 -7.15495 19.32250
-25.66950 -7.15495 19.38450
-25.93450 -7.40595 20.74150
-25.79450 -7.15495 20.78550
-25.56040 -7.15495 19.34050
-25.15440 -6.90405 19.32350
-24.74950 -6.90405 19.33650
-24.34350 -6.90295 19.37150
-23.93750 -6.90295 19.34850
-23.54850 -6.65195 19.34550
-23.12650 -6.65195 19.36250
-22.73650 -6.65195 19.36750
-22.33050 -6.65095 19.34350
-21.94150 -6.40095 19.34350
-21.53550 -6.39995 19.32750
-21.12950 -6.39995 19.34450
-20.72450 -6.39905 19.36850
-20.33450 -6.14905 19.35550
-19.91350 -6.14805 19.37350
-19.52250 -6.14805 19.34450
-19.10150 -6.14805 19.43250
-18.71150 -5.89695 19.46350
-18.32140 -5.89695 19.38150
-17.91650 -5.89595 19.36850
-17.52550 -5.89595 19.36650
-17.10550 -5.64495 19.52750
-16.71450 -5.64495 19.33750
-16.30950 -5.64405 19.37850
-15.91950 -5.64405 19.30550
-15.21640 -5.64305 22.78350
-14.84260 -5.64305 22.73350
-14.45250 -5.64305 22.68250
-14.04650 -5.39195 22.65050
-13.64150 -5.39095 22.70450
-13.25050 -5.39095 22.71550
-12.84550 -5.39095 22.71250
-12.45550 -5.13995 22.67050
-12.06540 -5.13995 22.72550
-11.65940 -5.13905 22.75350
-11.25340 -5.13905 22.71550
-10.86360 -5.13905 22.72950
-10.47450 -4.88805 22.74850
-10.06850 -4.88695 22.74050
-9.67850 -4.88695 22.72550
-9.27250 -4.88695 22.75050
-8.86740 -4.63595 22.73450
-8.47740 -4.63595 22.78450
-8.07140 -4.63495 22.84150
-7.68150 -4.63495 22.84350
-7.29150 -4.38405 22.85350
-6.90150 -4.38405 22.74850
-6.49550 -4.38305 22.75450
-6.10550 -4.38305 22.75550
-5.71640 -4.13195 22.69150
-5.29450 -4.13195 22.76350
-4.90440 -4.13195 22.77750
-4.51450 -4.13095 22.79550
-4.10950 -3.88095 22.77550
-3.71950 -3.87995 22.77350
-3.32850 -3.87995 22.80250
-2.92350 -3.87995 22.78450
-2.51850 -3.62895 22.77550
-2.12750 -3.62805 22.80550
-1.72240 -3.62805 22.83850
-1.33140 -3.62805 22.84550
-0.94250 -3.37695 22.85450
-0.53650 -3.37695 22.92050
-0.13050 -3.37595 22.90650
0.25950 -3.37595 22.92350
0.64850 -3.12495 22.82450
1.05450 -3.12495 22.81450
1.44460 -3.12405 22.79250
1.83450 -3.12405 22.77850
2.24050 -3.12405 22.81750
2.63050 -2.87305 22.77450
3.02050 -2.87305 22.79150
3.42650 -2.87205 22.77950
3.83150 -2.87205 22.75250
4.22150 -2.62095 22.81550
4.61160 -2.62095 22.75150
5.01760 -2.61995 22.73350
5.40750 -2.61995 22.78950
5.79750 -2.36895 22.78750
6.20250 -2.36895 22.75050
6.60850 -2.36895 22.80750
6.99850 -2.36805 22.83850
7.40350 -2.11805 22.86250
7.79450 -2.11705 22.85150
8.18460 -2.11705 22.71150
8.59050 -2.11705 22.68150
8.99550 -1.86595 22.69750
9.38550 -1.86495 22.72050
9.77550 -1.86495 22.68350
10.18150 -1.86495 22.68550
10.57050 -1.61395 22.67250
10.96060 -1.61395 22.68950
11.36660 -1.61305 22.77450
11.75640 -1.61305 22.64250
12.14650 -1.36205 22.65350
12.55250 -1.36205 22.70450
12.94250 -1.36095 22.64650
13.34850 -1.36095 22.63550
13.28550 -1.11095 19.35450
13.67450 -0.85995 19.30950
14.08050 -0.85995 19.32050
14.48660 -0.85895 19.34050
14.90740 -0.85895 21.06050
15.31340 -0.85895 21.21150
15.67150 -0.60795 19.34750
16.07750 -0.60795 19.33150
16.48350 -0.60705 19.33950
16.87350 -0.60705 19.34950
17.27850 -0.35595 19.39750
17.68450 -0.35595 19.38950
18.09050 -0.35495 19.34850
18.48040 -0.35495 19.35050
18.86950 -0.10395 19.33250
19.27550 -0.10395 19.32750
19.66550 -0.10395 19.35050
20.07150 -0.10295 19.33950
20.47650 0.14705 19.31550
20.86660 0.14795 19.27450
21.27260 0.14795 19.20950
21.66250 0.14895 19.24450
22.06750 0.39895 19.28750
22.47350 0.40005 19.24050
22.86350 0.40005 19.20150
23.26950 0.40005 19.26050
23.65950 0.40105 20.60550
24.09560 0.90205 15.34150
24.48550 0.90205 16.17650
24.73040 2.90505 -12.58050
25.15150 3.15505 -12.57750
25.57250 3.15605 -11.77350
26.00950 3.15605 -11.70950
26.20940 4.40795 -29.17950
26.64650 4.40795 -29.16950
26.64650 4.65795 -29.13550
26.00950 3.40605 -12.01150
25.57250 3.40605 -12.21050
25.15150 3.15505 -12.62750
24.48550 1.15205 16.30550
24.73040 3.15505 -12.61350
24.04950 0.65105 20.65050
24.09450 1.15205 15.35150
23.65950 0.65105 19.28250
23.26850 0.65105 19.21350
22.86350 0.65005 19.22950
22.47350 0.65005 19.28350
22.06750 0.39895 19.23250
21.66250 0.39895 19.25950
21.27150 0.39795 19.19950
20.86660 0.39795 19.28450
20.47650 0.14705 19.31350
20.07050 0.14705 19.35150
19.66550 0.14705 19.28350
19.27450 0.14605 19.34550
18.86950 -0.10395 19.30050
18.46450 -0.10495 19.34050
18.05850 -0.10495 19.31850
17.66860 -0.10595 19.33950
17.26260 -0.35595 19.35850
16.87250 -0.35705 19.36450
16.48250 -0.35705 19.36450
16.07650 -0.35705 19.35650
15.68750 -0.60795 20.94450
15.29750 -0.60795 21.21150
14.87550 -0.60895 19.36650
14.48540 -0.60895 19.36850
14.06460 -0.85995 19.36250
13.67450 -0.85995 19.24550
13.33150 -1.11095 22.63350
12.94150 -1.11095 22.68150
12.53650 -1.11205 22.69250
12.14650 -1.36205 22.70350
11.75640 -1.36305 22.69250
11.35060 -1.36305 22.69750
10.96060 -1.36305 22.69450
10.57050 -1.61395 22.72950
10.16550 -1.61395 22.73550
9.77450 -1.61495 22.75850
9.36950 -1.61495 22.72550
8.97950 -1.86595 22.71650
8.58940 -1.86595 22.73950
8.18350 -1.86705 22.72450
7.79360 -1.86705 22.70250
7.40350 -2.11805 22.71750
7.01350 -2.11805 22.81850
6.60850 -2.11805 22.83750
6.21750 -2.11895 22.86450
5.81250 -2.36895 22.82450
5.40650 -2.36995 22.73450
5.01650 -2.36995 22.76750
4.62660 -2.37095 22.72650
4.22150 -2.62095 22.77750
3.83150 -2.62205 22.77150
3.44150 -2.62205 22.76850
3.05150 -2.62205 22.81150
2.64550 -2.62305 22.82650
2.25550 -2.87305 22.82950
1.84950 -2.87405 22.77550
1.45950 -2.87405 22.80450
1.05450 -2.87495 22.81850
0.66450 -3.12495 22.76650
0.27450 -3.12595 22.77350
-0.13150 -3.12595 22.78150
-0.52150 -3.12595 22.82950
-0.91150 -3.37695 22.92350
-1.31660 -3.37695 22.90750
-1.72240 -3.37805 22.84250
-2.11240 -3.37805 22.75050
-2.51850 -3.62895 22.80250
-2.90850 -3.62895 22.78850
-3.29850 -3.62995 22.80650
-3.70450 -3.62995 22.75850
-4.10950 -3.88095 22.76750
-4.49950 -3.88095 22.80450
-4.90550 -3.88095 22.72450
-5.29560 -3.88195 22.80450
-5.68450 -4.13195 22.79350
-6.09050 -4.13305 22.74750
-6.48050 -4.13305 22.75350
-6.88650 -4.13405 22.76350
-7.29150 -4.38405 22.73850
-7.68150 -4.38495 22.75850
-8.07250 -4.38495 22.83650
-8.47740 -4.38495 22.87750
-8.86740 -4.63595 22.83150
-9.27350 -4.63595 22.83250
-9.67850 -4.63695 22.72250
-10.06950 -4.63695 22.75050
-10.47450 -4.63805 22.72050
-10.86450 -4.88805 22.72450
-11.27050 -4.88905 22.73050
-11.67540 -4.88905 22.70750
-12.06660 -4.88905 22.67650
-12.47150 -5.13995 22.72350
-12.86150 -5.13995 22.65150
-13.26750 -5.14095 22.65250
-13.67250 -5.14095 22.68550
-14.06250 -5.39195 22.71450
-14.46850 -5.39195 22.73850
-14.85850 -5.39305 22.65350
-15.26450 -5.39305 22.61850
-15.95050 -5.39405 19.29550
-16.35650 -5.39405 19.31650
-16.74650 -5.39405 19.34750
-17.15150 -5.64495 19.35150
-17.55750 -5.64595 19.36150
-17.96350 -5.64595 19.34950
-18.35350 -5.64595 19.44650
-18.74350 -5.89695 19.53950
-19.16440 -5.89695 19.35950
-19.57050 -5.89805 19.33350
-19.96050 -5.89805 19.37550
-20.38150 -6.14905 19.33750
-20.78750 -6.14905 19.32050
-21.19250 -6.14995 19.33350
-21.58250 -6.14995 19.32250
-21.98860 -6.14995 19.32550
-22.39350 -6.40095 19.32550
-22.79950 -6.40095 19.34750
-23.18950 -6.40195 19.31950
-23.59550 -6.40195 19.35050
-24.00050 -6.65295 19.31350
-24.40650 -6.65295 19.33750
-24.81250 -6.65405 19.32450
-25.21760 -6.65405 19.28450
-25.60740 -6.90495 19.35850
-25.85740 -6.90495 20.73650
-25.67060 -6.65405 20.37250
-25.37450 -6.65405 19.36650
-24.96850 -6.65405 19.33450
-24.57850 -6.40295 19.35450
-24.17250 -6.40295 19.33150
-23.76750 -6.40195 19.32750
-23.36150 -6.40195 19.31750
-22.95640 -6.15095 19.35150
-22.55040 -6.15095 19.34450
-22.16050 -6.14995 19.35050
-21.75450 -6.14995 19.35350
-21.34950 -5.89905 19.32050
-20.94350 -5.89905 19.37150
-20.55350 -5.89905 19.37350
-20.14750 -5.89805 19.36950
-19.74250 -5.64805 19.33450
-19.35240 -5.64695 19.35850
-18.93150 -5.64695 19.55050
-18.52550 -5.64595 19.49250
-18.13550 -5.39595 19.36550
-17.69850 -5.39495 19.70750
-17.30850 -5.39495 19.57150
-16.91850 -5.39495 19.47050
-16.52850 -5.14405 19.33950
-16.13850 -5.14405 19.34850
-15.45140 -5.39305 22.62750
-15.74840 -5.14305 19.25850
-15.06160 -5.14305 22.67750
-14.65650 -5.14195 22.72950
-14.26550 -5.14195 22.62850
-13.86050 -5.14095 22.70650
-13.47050 -4.89095 22.72350
-13.06450 -4.88995 22.71950
-12.67450 -4.88995 22.67250
-12.26850 -4.88995 22.71450
-11.86360 -4.88905 22.72050
-11.47350 -4.63905 22.65350
-11.08350 -4.63805 22.70450
-10.67750 -4.63805 22.76050
-10.28750 -4.63695 22.73850
-9.88250 -4.38695 22.83550
-9.47650 -4.38595 22.86050
-9.10240 -4.38595 22.84150
-8.69640 -4.38595 22.77450
-8.30650 -4.13495 22.76850
-7.90150 -4.13495 22.74550
-7.51050 -4.13405 22.70750
-7.12050 -4.13405 22.70250
-6.71550 -3.88305 22.74850
-6.32550 -3.88305 22.80350
-5.91950 -3.88195 22.81450
-5.51350 -3.88195 22.75650
-5.12450 -3.63095 22.77550
-4.73450 -3.63095 22.74550
-4.32850 -3.63095 22.73350
-3.93850 -3.62995 22.78850
-3.53350 -3.37995 22.80650
-3.14250 -3.37895 22.79050
-2.73740 -3.37895 22.84450
-2.33140 -3.37805 22.91150
-1.94160 -3.12805 22.92650
-1.55150 -3.12695 22.93950
-1.14550 -3.12695 22.84050
-0.74050 -3.12695 22.86850
-0.36650 -2.87595 22.84550
0.03950 -2.87595 22.79450
0.42950 -2.87495 22.76150
0.83560 -2.87495 22.82450
1.22560 -2.62405 22.78450
1.63050 -2.62405 22.76350
2.02150 -2.62305 22.75650
2.42650 -2.62305 22.79050
2.81650 -2.37205 22.76050
3.22250 -2.37205 22.81450
3.61250 -2.37205 22.77250
4.01850 -2.37095 22.73850
4.40740 -2.12095 22.73450
4.79750 -2.11995 22.77050
5.20350 -2.11995 22.84950
5.60950 -2.11895 22.84150
5.99950 -2.11895 22.83450
6.38850 -1.86805 22.76450
6.79450 -1.86805 22.69550
7.18460 -1.86805 22.76950
7.59050 -1.86705 22.70850
7.99550 -1.61595 22.73250
8.37050 -1.61595 22.67050
8.77650 -1.61595 22.70750
9.18150 -1.61495 22.71550
9.57150 -1.36495 22.78450
9.96150 -1.36395 22.70350
10.36750 -1.36395 22.74250
10.75760 -1.36395 22.65450
11.14760 -1.11305 22.70950
11.55250 -1.11305 22.69750
11.95850 -1.11205 22.71550
12.34850 -1.11205 22.75650
12.73850 -0.86095 22.78950
13.14450 -0.86095 22.77950
13.53450 -0.85995 22.54450
13.48660 -0.60995 19.29350
13.87750 -0.60995 19.31350
14.28240 -0.35895 19.34850
14.67250 -0.35895 19.36250
15.10950 -0.35795 21.20450
15.49950 -0.35795 21.15850
15.87350 -0.10705 19.33950
16.27950 -0.10705 19.39650
16.68460 -0.10595 19.37450
17.09060 -0.10595 19.39750
17.48040 0.14505 19.36150
17.88640 0.14505 19.37750
18.27650 0.14505 19.29950
18.68150 0.14605 19.31650
19.08750 0.39605 19.30450
19.47750 0.39695 19.32150
19.88350 0.39695 19.29550
20.27350 0.39795 19.28350
20.67860 0.64795 19.30050
21.08440 0.64895 19.34250
21.47450 0.64895 19.26750
21.88050 0.64895 19.27750
22.26950 0.90005 19.22350
22.67550 0.90005 19.26150
23.08150 0.90105 19.21250
23.47150 0.90105 19.24950
23.86150 0.90205 20.75350
23.90740 1.40205 15.26550
24.29750 1.40295 15.78950
24.96350 3.40505 -12.60650
25.38450 3.65605 -12.65050
25.80550 3.65705 -12.31250
26.22750 3.65705 -11.77950
26.42750 4.90895 -29.13050
26.70940 4.15795 -11.56550
26.28850 3.90705 -11.26950
26.48850 5.40895 -29.15050
25.85150 3.90705 -11.64550
25.30850 2.90505 0.42050
25.43050 3.90605 -12.44650
24.90260 2.90505 0.38250
25.00950 3.90605 -12.61950
24.35950 1.65295 15.68550
23.90740 1.40205 20.79750
23.95350 1.65205 15.17950
23.51650 1.40205 19.21550
23.12660 1.40105 19.23150
22.72150 1.15105 19.20750
22.33150 1.15005 19.24150
21.92550 1.15005 19.25550
21.51950 1.15005 19.25250
21.13050 0.89895 19.30050
20.72450 0.89895 19.26650
20.33440 0.89795 19.28450
19.92860 0.89795 19.34550
19.52260 0.89695 19.37250
19.13350 0.64695 19.36950
18.72750 0.64605 19.33950
18.33750 0.64605 19.34450
17.93150 0.64605 19.31250
17.52650 0.39505 19.35350
17.13640 0.39505 19.29550
16.73040 0.39405 19.33950
16.32460 0.39405 19.29950
15.91950 0.14295 19.31750
15.56050 0.14295 21.16650
15.15550 -0.10795 21.20750
14.73350 0.14205 19.33450
14.32850 -0.10895 19.32150
13.92250 -0.10895 19.26850
13.59560 -0.35995 22.51250
13.53240 -0.10895 19.30350
13.18960 -0.35995 22.66650
12.80050 -0.61095 22.69950
12.39450 -0.61095 22.67350
12.00450 -0.61205 22.67750
11.61450 -0.61205 22.83150
11.20850 -0.86305 22.81350
10.81850 -0.86305 22.78350
10.42860 -0.86305 22.71450
10.02260 -0.86395 22.72450
9.61750 -0.86395 22.77550
9.24350 -1.11495 22.66250
8.83750 -1.11495 22.71450
8.43150 -1.11595 22.73650
8.04150 -1.11595 22.70750
7.65150 -1.36705 22.76750
7.24660 -1.36705 22.72350
6.85550 -1.36705 22.76250
6.46550 -1.36805 22.71850
6.06050 -1.61805 22.74550
5.67050 -1.61895 22.79050
5.26450 -1.61895 22.72650
4.87450 -1.61895 22.75950
4.48540 -1.86995 22.73250
4.07940 -1.87095 22.85650
3.68960 -1.87095 22.87350
3.29860 -1.87095 22.87750
2.89350 -2.12205 22.88550
2.50350 -2.12205 22.78850
2.09750 -2.12305 22.80750
1.69250 -2.12305 22.76050
1.30150 -2.12305 22.76050
0.91250 -2.37405 22.81950
0.52260 -2.37495 22.83450
0.11660 -2.37495 22.80450
-0.27350 -2.37495 22.84450
-0.67850 -2.62595 22.82850
-1.08450 -2.62595 22.79750
-1.47450 -2.62695 22.77450
-1.88050 -2.62695 22.70650
-2.27050 -2.87805 22.76450
-2.66050 -2.87805 22.84950
-3.06650 -2.87895 22.79250
-3.45640 -2.87895 22.84150
-3.86150 -3.12995 22.89450
-4.25150 -3.12995 22.89150
-4.65750 -3.12995 22.82450
-5.04750 -3.13095 22.78750
-5.45250 -3.38095 22.79350
-5.85850 -3.38195 22.79650
-6.24840 -3.38195 22.79250
-6.63850 -3.38195 22.81750
-7.04350 -3.63305 22.83150
-7.43350 -3.63405 22.78950
-7.83950 -3.63405 22.74950
-8.22950 -3.63405 22.78050
-8.65050 -3.88495 22.70450
-9.04060 -3.88495 22.72650
-9.44640 -3.88595 22.72550
-9.83640 -3.88595 22.77250
-10.24240 -3.88695 22.71050
-10.63250 -4.13695 22.76550
-11.03750 -4.13805 22.75150
-11.42750 -4.13805 22.83250
-11.81850 -4.13805 22.80750
-12.22350 -4.38905 22.77950
-12.64460 -4.38905 22.66050
-13.03440 -4.38995 22.69550
-13.42540 -4.38995 22.74850
-13.83050 -4.64095 22.65450
-14.22050 -4.64095 22.68650
-14.64150 -4.64195 22.62350
-15.03150 -4.64195 22.70050
-15.43750 -4.89305 22.59650
-15.71850 -4.64305 19.25750
-16.10850 -4.64305 19.31250
-16.53050 -4.64305 19.30450
-16.90440 -4.89405 19.54950
-17.24750 -4.89405 20.14950
-17.60650 -4.89495 20.53950
-18.12150 -4.89495 19.40950
-18.51050 -5.14595 19.50150
-18.91650 -5.14595 19.49750
-19.33750 -5.14695 19.34550
-19.74350 -5.14695 19.32650
-20.13340 -5.14695 19.34850
-20.53940 -5.39805 19.32450
-20.94450 -5.39805 19.35650
-21.35050 -5.39905 19.35550
-21.74050 -5.39905 19.36650
-22.16150 -5.64995 19.35250
-22.55150 -5.64995 19.34250
-22.95750 -5.65095 19.37250
-23.36360 -5.65095 19.33050
-23.76850 -5.90195 19.33350
-24.17450 -5.90195 19.30450
-24.57950 -5.90295 19.33350
-24.98550 -5.90295 19.32750
-25.37550 -6.15405 19.32250
-25.64050 -6.15405 20.63650
-25.68750 -6.15405 20.76350
-25.43850 -5.90295 19.35450
-25.01650 -5.90295 19.35950
-24.62650 -5.90295 19.24950
-24.22050 -5.90195 19.31450
-23.83140 -5.65195 19.27650
-23.42540 -5.65095 19.34850
-23.01960 -5.65095 19.36250
-22.61450 -5.64995 19.34550
-22.20850 -5.39995 19.34850
-21.81850 -5.39905 19.35950
-21.41350 -5.39905 19.34350
-21.00750 -5.39905 19.33050
-20.60240 -5.14805 19.34050
-20.21150 -5.14695 19.35750
-19.80650 -5.14695 19.39050
-19.40050 -5.14695 19.37050
-18.99550 -4.89595 19.48350
-18.58950 -4.89595 19.46050
-18.19950 -4.89495 19.43250
-17.69950 -4.89495 20.53550
-17.30950 -4.89405 20.34450
-16.98240 -4.64405 19.48850
-16.59260 -4.64305 19.37450
-16.20250 -4.64305 19.32350
-15.51550 -4.64195 22.60250
-15.79750 -4.39195 19.34350
-15.10950 -4.64195 22.62450
-14.71950 -4.64195 22.65750
-14.31450 -4.39095 22.71750
-13.92450 -4.39095 22.66650
-13.53440 -4.38995 22.67750
-13.12840 -4.38995 22.66450
-12.72350 -4.13905 22.79850
-12.31750 -4.13905 22.82350
-11.92750 -4.13805 22.80850
-11.53750 -4.13805 22.72250
-11.14750 -4.13805 22.74850
-10.74150 -3.88695 22.72350
-10.35150 -3.88695 22.73950
-9.94550 -3.88595 22.75450
-9.55540 -3.88595 22.72950
-9.15050 -3.63495 22.74550
-8.76050 -3.63495 22.71450
-8.37050 -3.63405 22.75750
-7.96450 -3.63405 22.75950
-7.57550 -3.38305 22.73150
-7.18450 -3.38305 22.70150
-6.76350 -3.38305 22.76950
-6.37340 -3.38195 22.79950
-5.98350 -3.13195 22.75350
-5.57850 -3.13095 22.74950
-5.18750 -3.13095 22.86650
-4.78250 -3.12995 22.86350
-4.37650 -2.87995 22.91050
-3.98650 -2.87895 22.76450
-3.59650 -2.87895 22.80750
-3.20640 -2.87895 22.79150
-2.80150 -2.62805 22.82250
-2.41150 -2.62805 22.80450
-2.00550 -2.62695 22.76950
-1.61550 -2.62695 22.81450
-1.22550 -2.37595 22.78850
-0.81950 -2.37595 22.80850
-0.41440 -2.37495 22.78550
-0.02350 -2.37495 22.79950
0.36550 -2.12405 22.76150
0.77150 -2.12405 22.87650
1.16150 -2.12405 22.76250
1.56750 -2.12305 22.83750
1.95750 -2.12305 22.81650
2.36250 -1.87205 22.89750
2.75250 -1.87205 22.85750
3.15850 -1.87095 22.88150
3.54860 -1.87095 22.78250
3.93850 -1.61995 22.76050
4.34350 -1.61995 22.82550
4.74950 -1.61995 22.73050
5.13950 -1.61895 22.73450
5.52950 -1.36895 22.75350
5.93550 -1.36805 22.72150
6.32550 -1.36805 22.73450
6.71550 -1.36705 22.74750
7.12050 -1.11705 22.76050
7.51050 -1.11595 22.74450
7.90150 -1.11595 22.74650
8.30650 -1.11595 22.71350
8.71150 -0.86495 22.69850
9.10250 -0.86495 22.70650
9.50760 -0.86395 22.73050
9.89850 -0.86395 22.79150
10.28740 -0.61305 22.79750
10.69350 -0.61305 22.80750
11.09950 -0.61205 22.73950
11.48950 -0.61205 22.70950
11.87850 -0.36095 22.68350
12.28450 -0.36095 22.69450
12.67450 -0.36095 22.69750
13.06460 -0.35995 22.70250
13.47060 -0.10995 22.72950
13.40740 -0.10995 19.39050
13.81250 0.14105 19.30550
14.20250 0.14105 19.32350
14.60850 0.14205 19.31750
15.03050 0.14205 21.12950
15.42050 0.14295 21.22350
15.80960 0.39295 19.32150
16.19960 0.39405 19.37850
16.60540 0.39405 19.40850
16.99550 0.64505 19.30650
17.40150 0.64505 19.39550
17.80650 0.64505 19.31450
18.19650 0.64605 19.30350
18.60250 0.89695 19.36050
18.99250 0.89695 19.36550
19.39850 0.89695 19.30350
19.80360 0.89795 19.33650
20.19350 1.14795 19.23950
20.59950 1.14895 19.23150
20.98950 1.14895 19.26350
21.39550 1.14895 19.28550
21.80050 1.40005 19.27250
22.19050 1.40105 19.26550
22.59650 1.40105 19.20150
22.98650 1.40105 19.25550
23.39150 1.65205 19.26950
23.78240 1.40205 20.76850
24.21850 1.90295 15.37050
24.62350 1.90295 16.17050
24.76140 3.15505 0.33050
24.86850 4.15605 -12.64250
25.28950 4.15705 -12.58150
25.71060 4.15705 -11.90650
26.14760 4.15705 -11.55150
26.33250 5.40895 -29.22350
26.56960 4.15795 -11.53650
26.78450 5.66005 -29.19050
26.31960 4.40795 -11.44150
26.53450 5.66005 -29.15350
25.89850 4.15705 -11.59550
25.47650 4.15705 -12.39950
25.05550 4.15605 -12.62450
24.38950 2.15295 15.73950
23.95350 1.65205 20.78850
23.98350 2.15295 15.26150
23.56340 1.65205 19.27450
23.15740 1.65205 19.23050
22.76760 1.65105 19.27350
22.36150 1.65105 19.25250
21.97150 1.40005 19.26950
21.56650 1.40005 19.25150
21.16050 1.40005 19.25450
20.77050 1.39895 19.22050
20.36550 1.14795 19.27350
19.97450 1.14795 19.31750
19.56960 1.14795 19.35150
19.16350 1.14695 19.34550
18.77350 0.89695 19.34850
18.36850 0.89605 19.28350
17.97750 0.89605 19.29650
17.57250 0.89605 19.35250
17.16650 0.64505 19.38850
16.77650 0.64405 19.31550
16.37160 0.64405 19.40250
15.98040 0.64405 19.38850
15.59150 0.39295 21.18950
15.20150 0.39295 21.18050
14.76450 0.39205 19.37550
14.35850 0.39205 19.30250
13.96850 0.14105 19.27450
13.62660 -0.10895 22.60050
13.57850 0.14105 19.35150
13.23540 -0.10995 22.69550
12.84560 -0.10995 22.69350
12.44050 -0.36095 22.70950
12.05050 -0.36095 22.72850
11.64450 -0.36205 22.71750
11.25450 -0.36205 22.68450
10.86450 -0.36205 22.70450
10.45940 -0.61305 22.70250
10.06960 -0.61305 22.80250
9.67860 -0.61395 22.82450
9.27350 -0.61395 22.81550
8.86850 -0.86495 22.72050
8.47750 -0.86495 22.71250
8.08750 -0.86595 22.73750
7.68150 -0.86595 22.74350
7.29250 -1.11705 22.70650
6.90260 -1.11705 22.71550
6.49660 -1.11705 22.73950
6.10650 -1.11805 22.77150
5.71650 -1.36805 22.75850
5.31050 -1.36895 22.76850
4.92050 -1.36895 22.76450
4.51550 -1.36995 22.76350
4.12550 -1.61995 22.77950
3.73540 -1.62095 22.75350
3.32940 -1.62095 22.75850
2.93950 -1.62095 22.79550
2.54950 -1.87205 22.87150
2.14450 -1.87205 22.89150
1.75350 -1.87305 22.89050
1.34850 -1.87305 22.78050
0.94350 -2.12405 22.74950
0.55250 -2.12405 22.80950
0.16250 -2.12495 22.84150
-0.24360 -2.12495 22.79550
-0.63250 -2.37595 22.87050
-1.02250 -2.37595 22.80450
-1.42850 -2.37595 22.73450
-1.83450 -2.37695 22.78150
-2.22450 -2.37695 22.83050
-2.61450 -2.62805 22.79150
-3.01950 -2.62805 22.82250
-3.40950 -2.62895 22.81050
-3.81540 -2.62895 22.78950
-4.22050 -2.87995 22.78450
-4.61150 -2.87995 22.80450
-5.00150 -2.87995 22.87850
-5.40650 -2.88095 22.84450
-5.79650 -3.13095 22.88750
-6.20250 -3.13195 22.78950
-6.60850 -3.13195 22.78650
-6.99840 -3.13305 22.76150
-7.40350 -3.38305 22.72650
-7.79350 -3.38405 22.75350
-8.18350 -3.38405 22.74950
-8.58950 -3.38405 22.76850
-8.97950 -3.63495 22.73750
-9.38450 -3.63495 22.71650
-9.79060 -3.63595 22.73950
-10.19640 -3.63595 22.67750
-10.60150 -3.88695 22.68050
-10.97650 -3.88695 22.68350
-11.38150 -3.88805 22.71450
-11.78750 -3.88805 22.66950
-12.17750 -4.13905 22.73850
-12.56750 -4.13905 22.79250
-12.97350 -4.13905 22.79850
-13.36360 -4.13995 22.77450
-13.78440 -4.13995 22.70550
-14.17450 -4.39095 22.65750
-14.57950 -4.39095 22.69650
-14.97050 -4.39195 22.64950
-15.39150 -4.39195 22.58450
-15.67250 -4.39195 19.30050
-16.06250 -4.39305 19.26350
-16.46850 -4.39305 19.26450
-16.85850 -4.39305 19.52950
-17.20140 -4.64405 20.05750
-17.56040 -4.64405 20.57950
-18.07550 -4.64495 19.38950
-18.46550 -4.64495 19.48250
-18.85450 -4.89595 19.54550
-19.27650 -4.89595 19.34850
-19.69750 -4.89695 19.34450
-20.08750 -4.89695 19.30750
-20.49250 -5.14805 19.31150
-20.88250 -5.14805 19.34450
-21.30450 -5.14905 19.32750
-21.69450 -5.14905 19.36350
-22.09950 -5.39995 19.33350
-22.50550 -5.39995 19.33750
-22.91150 -5.39995 19.34750
-23.30150 -5.40095 19.36950
-23.70640 -5.65095 19.34050
-24.12750 -5.65195 19.26250
-24.53350 -5.65195 19.24150
-24.93950 -5.65295 19.27250
-25.32850 -5.90295 19.31750
-25.57850 -5.90295 20.65350
-25.65750 -5.65295 20.79050
-25.40750 -5.65295 19.34550
-25.01850 -5.40195 19.27150
-24.61240 -5.40195 19.26250
-24.20640 -5.40195 19.26850
-23.80040 -5.40095 19.36150
-23.39550 -5.15095 19.36050
-22.98950 -5.14995 19.37550
-22.59950 -5.14995 19.34350
-22.19350 -5.14905 19.33950
-21.78850 -4.89905 19.36750
-21.38250 -4.89805 19.35650
-20.99250 -4.89805 19.34350
-20.58750 -4.89805 19.35550
-20.18150 -4.64695 19.36250
-19.77650 -4.64595 19.35850
-19.38550 -4.64595 19.31150
-18.96450 -4.64595 19.44250
-18.57550 -4.39495 19.45650
-18.16950 -4.39495 19.47050
-17.66950 -4.39405 20.54850
-17.27940 -4.39405 20.49450
-16.95250 -4.14305 19.52150
-16.57850 -4.14305 19.30850
-16.17250 -4.14195 19.34250
-15.78250 -4.14195 19.29950
-15.09550 -4.14095 22.62150
-14.68950 -4.14095 22.76250
-14.28350 -4.14095 22.77150
-13.89350 -4.13995 22.79250
-13.50450 -3.88995 22.71350
-13.09850 -3.88905 22.75550
-12.70850 -3.88905 22.73050
-12.30250 -3.88805 22.74050
-11.91250 -3.63805 22.69850
-11.50750 -3.63695 22.71150
-11.11740 -3.63695 22.72750
-10.71140 -3.63695 22.76950
-10.32140 -3.38595 22.68450
-9.93150 -3.38595 22.75150
-9.52550 -3.38495 22.74350
-9.13550 -3.38495 22.71250
-8.73050 -3.13405 22.75350
-8.34050 -3.13405 22.69950
-7.93450 -3.13305 22.72850
-7.54450 -3.13305 22.76050
-7.13960 -2.88195 22.84250
-6.73350 -2.88195 22.86550
-6.34350 -2.88195 22.88150
-5.95350 -2.88095 22.82250
-5.56350 -2.63095 22.75650
-5.15750 -2.62995 22.76850
-4.76750 -2.62995 22.79850
-4.36150 -2.62895 22.76850
-3.97240 -2.37895 22.78850
-3.58250 -2.37805 22.74250
-3.17650 -2.37805 22.79050
-2.77050 -2.37805 22.82250
-2.38150 -2.12695 22.80450
-1.97550 -2.12695 22.76250
-1.58550 -2.12595 22.85250
-1.19550 -2.12595 22.79750
-0.78940 -1.87495 22.76450
-0.38450 -1.87495 22.83750
0.00640 -1.87405 22.80750
0.41150 -1.87405 22.89650
0.80150 -1.62305 22.88650
1.20750 -1.62305 22.90950
1.59750 -1.62305 22.84550
2.00350 -1.62205 22.81150
2.37750 -1.37205 22.79550
2.78250 -1.37095 22.74550
3.18850 -1.37095 22.73250
3.57850 -1.36995 22.80250
3.96850 -1.11995 22.76850
4.37450 -1.11895 22.83450
4.76450 -1.11895 22.70850
5.15450 -1.11895 22.74950
5.55960 -0.86805 22.73250
5.96550 -0.86805 22.81150
6.35550 -0.86705 22.75750
6.76150 -0.86705 22.72550
7.15150 -0.86595 22.73950
7.54050 -0.61595 22.72550
7.94650 -0.61495 22.83950
8.35250 -0.61495 22.81250
8.74250 -0.61495 22.83450
9.13260 -0.36395 22.78550
9.53740 -0.36395 22.71650
9.92860 -0.36305 22.68750
10.31850 -0.36305 22.67450
10.72350 -0.11205 22.70650
11.11350 -0.11205 22.69350
11.50350 -0.11095 22.71150
11.90950 -0.11095 22.69950
12.31460 0.14005 22.71050
12.70440 0.14005 22.71750
13.09450 0.14005 22.69950
13.50050 0.14105 22.68650
13.43750 0.39105 19.36750
13.84250 0.64205 19.33050
14.23350 0.64205 19.38550
14.63850 0.64205 19.39150
15.06050 0.64295 21.15350
15.46560 0.64295 21.24050
15.83940 0.89405 19.38850
16.23040 0.89405 19.40350
16.63550 0.89505 19.37850
17.02550 1.14505 19.36450
17.43150 1.14605 19.35250
17.83650 1.14605 19.32650
18.22750 1.14605 19.32850
18.63250 1.39695 19.33550
19.02260 1.39695 19.31050
19.42860 1.39795 19.27350
19.83350 1.39795 19.33650
20.23950 1.64895 19.31050
20.62950 1.64895 19.27950
21.01950 1.65005 19.25850
21.42550 1.65005 19.28050
21.83050 1.90105 19.24850
22.23650 1.90105 19.23650
22.62660 1.90105 19.26050
23.01650 1.90205 19.28850
23.42150 2.15295 19.25550
23.81250 1.90295 20.72250
24.26350 2.40395 15.39150
24.65350 2.40395 16.11950
24.89850 4.65705 -12.62650
25.31960 4.65705 -12.40550
25.75650 4.65795 -11.81350
26.17750 4.65795 -11.53550
26.37750 5.91005 -29.14750
26.61450 4.65795 -11.82150
26.82940 6.16005 -29.20250
26.84750 5.15895 -11.41750
26.42650 5.15895 -11.46450
26.64260 6.41005 -29.14450
26.00550 4.90795 -11.55150
25.56850 4.90795 -11.70350
25.14760 4.90705 -12.64650
24.48150 2.65395 16.14850
24.72650 4.90705 -12.83950
24.04550 2.40295 20.70650
24.09150 2.65395 15.27350
23.65550 2.40295 19.23950
23.26450 2.40295 19.22050
22.85950 2.40205 19.24050
22.46950 2.15205 19.25950
22.06340 2.15105 19.27650
21.65860 2.15105 19.22650
21.26760 2.15005 19.33150
20.84750 1.90005 19.34150
20.45650 1.89895 19.27750
20.05150 1.89895 19.26650
19.66150 1.89895 19.30950
19.25550 1.64795 19.26150
18.85060 1.64795 19.26650
18.45940 1.64695 19.32450
18.05450 1.64695 19.26250
17.66450 1.39605 19.30350
17.25850 1.39605 19.35750
16.85350 1.39505 19.39850
16.46250 1.39505 19.36850
16.05750 1.14405 19.34850
15.68340 1.14405 21.14050
15.27850 0.89295 21.24250
14.85650 1.14295 19.28350
14.45050 0.89295 19.30450
14.06050 0.89205 19.29450
13.65550 0.89205 19.31650
13.31250 0.64105 22.67750
12.92250 0.64105 22.71550
12.53240 0.39005 22.70350
12.12660 0.39005 22.69250
11.73660 0.38905 22.72650
11.34650 0.38905 22.70850
10.94150 0.13795 22.70550
10.55150 0.13795 22.70350
10.14550 0.13795 22.72450
9.75550 0.13695 22.70750
9.36550 -0.11305 22.70150
8.95950 -0.11395 22.70650
8.56960 -0.11395 22.69850
8.16350 -0.11495 22.72350
7.77450 -0.36495 22.73650
7.36850 -0.36595 22.74650
6.99450 -0.36595 22.84050
6.58850 -0.36595 22.84450
6.19850 -0.61705 22.83850
5.79360 -0.61705 22.72850
5.40260 -0.61805 22.75350
4.99750 -0.61805 22.74150
4.60750 -0.86895 22.77050
4.21750 -0.86895 22.76450
3.81150 -0.86995 22.78350
3.40550 -0.86995 22.75050
3.01650 -1.12095 22.75550
2.62660 -1.12095 22.79850
2.22060 -1.12095 22.80350
1.83050 -1.12205 22.81250
1.44050 -1.37205 22.78650
1.03450 -1.37305 22.79550
0.62950 -1.37305 22.79350
0.23850 -1.37405 22.78550
-0.15150 -1.37405 22.87850
-0.55650 -1.62495 22.92450
-0.94640 -1.62495 22.92050
-1.33640 -1.62495 22.93150
-1.74250 -1.62595 22.77950
-2.13150 -1.87595 22.79650
-2.53750 -1.87695 22.76750
-2.94350 -1.87695 22.77050
-3.33350 -1.87805 22.83150
-3.73850 -2.12805 22.72350
-4.12840 -2.12895 22.72450
-4.51950 -2.12895 22.80950
-4.92450 -2.12895 22.76150
-5.33050 -2.37995 22.70550
-5.72050 -2.37995 22.78350
-6.12650 -2.38095 22.77950
-6.51650 -2.38095 22.71350
-6.92150 -2.63195 22.73550
-7.32750 -2.63195 22.74350
-7.71760 -2.63305 22.75550
-8.10740 -2.63305 22.85650
-8.51250 -2.88405 22.83750
-8.90250 -2.88405 22.83350
-9.30850 -2.88405 22.74550
-9.71450 -2.88495 22.75750
-10.10450 -2.88495 22.71550
-10.50950 -3.13595 22.73650
-10.89940 -3.13595 22.73950
-11.30540 -3.13695 22.65850
-11.71140 -3.13695 22.69950
-12.10050 -3.38805 22.66450
-12.50650 -3.38805 22.69950
-12.89650 -3.38805 22.65450
-13.30250 -3.38905 22.70950
-13.70750 -3.63995 22.65350
-14.09740 -3.63995 22.69050
-14.50340 -3.63995 22.69150
-14.89350 -3.64095 22.69650
-15.29850 -3.89095 22.65650
-15.59650 -3.64095 19.28550
-15.98650 -3.64195 19.34550
-16.39150 -3.64195 19.24950
-16.78150 -3.89305 19.52450
-17.10950 -3.89305 20.24450
-17.48350 -3.89305 20.57450
-17.99840 -3.89405 19.37250
-18.38850 -4.14495 19.39550
-18.79450 -4.14495 19.45350
-19.21550 -4.14495 19.33550
-19.60550 -4.14595 19.31150
-20.01050 -4.39595 19.36650
-20.41650 -4.39695 19.34650
-20.82250 -4.39695 19.33650
-21.21250 -4.39805 19.35150
-21.61750 -4.64805 19.35050
-22.03940 -4.64905 19.27050
-22.44450 -4.64905 19.33450
-22.83450 -4.64905 19.37650
-23.24050 -4.89995 19.30650
-23.64550 -4.89995 19.34150
-24.05150 -4.90095 19.28550
-24.45750 -4.90095 19.26450
-24.84740 -4.90195 19.25150
-25.26850 -5.15195 19.24550
-25.51850 -5.15295 20.63950
-25.54950 -5.15295 20.56850
-25.26850 -4.90195 19.28050
-24.84740 -4.90195 19.27050
-24.44150 -4.90095 19.28950
-24.02050 -4.90095 19.35950
-23.59950 -4.64995 19.31950
-23.19350 -4.64995 19.32550
-22.77250 -4.64905 19.30750
-22.36650 -4.64905 19.31650
-21.94550 -4.39805 19.33850
-21.52440 -4.39805 19.34650
-21.11850 -4.39695 19.31950
-20.71350 -4.39695 19.33050
-20.29250 -4.14595 19.32350
-19.87050 -4.14595 19.33550
-19.46550 -4.14595 19.34550
-19.04350 -4.14495 19.37750
-18.62340 -3.89495 19.50450
-18.21760 -3.89405 19.27450
-17.70250 -3.89405 20.53950
-17.28050 -3.89305 20.55350
-16.96950 -3.64305 19.49350
-16.57950 -3.64195 19.23950
-16.15750 -3.64195 19.33450
-15.75250 -3.64095 19.30050
-15.06550 -3.64095 22.62650
-14.64460 -3.63995 22.68050
-14.22240 -3.63995 22.67350
-13.81750 -3.38905 22.68050
-13.41150 -3.38905 22.65450
-13.00550 -3.38905 22.68750
-12.60050 -3.38805 22.70650
-12.19550 -3.13805 22.70050
-11.77350 -3.13695 22.73350
-11.36740 -3.13695 22.70350
-10.96260 -3.13595 22.69450
-10.55650 -2.88595 22.68250
-10.15150 -2.88495 22.77650
-9.72950 -2.88495 22.74050
-9.32450 -2.88405 22.85450
-8.91850 -2.63405 22.85550
-8.51340 -2.63305 22.87550
-8.10740 -2.63305 22.78950
-7.71760 -2.63305 22.76550
-7.29650 -2.38195 22.77550
-6.90650 -2.38195 22.71550
-6.48450 -2.38095 22.77550
-6.07950 -2.38095 22.72350
-5.68950 -2.12995 22.75450
-5.26850 -2.12995 22.81050
-4.87840 -2.12895 22.70750
-4.47240 -2.12895 22.82650
-4.06750 -1.87805 22.74650
-3.66150 -1.87805 22.78950
-3.25550 -1.87805 22.75550
-2.86550 -1.87695 22.78450
-2.44450 -1.62595 22.82550
-2.05450 -1.62595 22.78550
-1.63350 -1.62595 22.91950
-1.22740 -1.62495 22.93550
-0.83750 -1.37495 22.92350
-0.44750 -1.37405 22.77050
-0.02650 -1.37405 22.80150
0.36350 -1.37405 22.79350
0.76850 -1.12305 22.82050
1.15950 -1.12205 22.77650
1.58050 -1.12205 22.79950
1.97060 -1.12205 22.79250
2.36040 -0.87095 22.72650
2.76550 -0.87095 22.79050
3.17150 -0.86995 22.74550
3.57750 -0.86995 22.79350
3.96750 -0.61895 22.69850
4.37250 -0.61895 22.83950
4.76350 -0.61805 22.73550
5.16860 -0.61805 22.76250
5.57460 -0.61805 22.80650
5.96440 -0.36705 22.85150
6.36950 -0.36705 22.82650
6.76050 -0.36595 22.84750
7.16550 -0.36595 22.73150
7.57050 -0.11495 22.74550
7.96150 -0.11495 22.78950
8.35150 -0.11395 22.67450
8.75760 -0.11395 22.70450
9.14650 0.13695 22.68950
9.55250 0.13695 22.70050
9.95850 0.13695 22.75150
10.34850 0.13795 22.70150
10.73750 0.38795 22.70350
11.14350 0.38905 22.73750
11.53360 0.38905 22.72550
11.93960 0.39005 22.74850
12.34450 0.64005 22.66950
12.73450 0.64105 22.67350
13.12450 0.64105 22.77550
13.53050 0.64105 22.65050
13.46750 0.89205 19.33450
13.85750 1.14205 19.30950
14.26350 1.14295 19.31450
14.66860 1.14295 19.35250
15.09060 1.14295 21.15050
15.49550 1.14405 21.23650
15.85450 1.39405 19.37050
16.26050 1.39505 19.35450
16.66550 1.39505 19.37550
17.05550 1.64605 19.29050
17.46150 1.64605 19.34450
17.85150 1.64695 19.32850
18.25750 1.64695 19.27750
18.66250 1.89795 19.35450
19.05250 1.89795 19.34950
19.45850 1.89795 19.30250
19.84850 1.89895 19.29750
20.25350 2.15005 19.26950
20.65950 2.15005 19.35550
21.04950 2.15005 19.27250
21.45550 2.15105 19.29250
21.84560 2.15105 19.25750
22.25050 2.40205 19.27250
22.65650 2.40205 19.31650
23.04650 2.40205 19.27550
23.45250 2.40295 19.25150
23.84250 2.40295 20.66650
24.27850 2.90395 15.38550
24.66860 2.90505 16.18250
24.92860 4.90705 -12.63850
25.34950 5.15795 -12.32350
25.77150 5.15795 -11.38550
26.19250 5.15895 -11.42750
26.39260 6.41005 -29.28250
26.61350 5.15895 -11.38050
26.84450 6.41105 -29.20250
26.31650 5.40895 -11.42450
26.53240 6.66105 -29.25450
25.89550 5.40895 -11.43650
25.45850 5.15795 -11.74250
24.77650 3.15505 16.11550
25.03750 5.15795 -12.63350
24.37160 3.15505 15.51950
23.93550 2.65395 20.66150
23.54550 2.65295 19.26950
23.15550 2.65295 19.25550
22.74950 2.65205 19.26650
22.34350 2.65205 19.28250
21.93840 2.40105 19.26250
21.54860 2.40105 19.30150
21.14260 2.40105 19.27450
20.73650 2.40005 19.24450
20.34750 2.15005 19.31050
19.95650 2.14895 19.33450
19.55150 2.14895 19.27350
19.14550 2.14795 19.34350
18.74050 1.89795 19.34850
18.35060 1.89695 19.28650
17.94460 1.89695 19.35150
17.55450 1.89695 19.35750
17.14950 1.64605 19.27650
16.74350 1.64605 19.37050
16.35350 1.64505 19.32050
15.94750 1.64505 19.37850
15.58850 1.39405 21.24450
15.18340 1.39405 21.05650
14.74660 1.39295 19.38850
14.35650 1.39295 19.22550
13.95050 1.39295 19.31250
13.60850 0.89205 22.66550
13.56050 1.14205 19.34150
13.21850 0.89105 22.79750
12.82750 0.89105 22.77850
12.42250 0.89105 22.82150
12.03240 0.64005 22.75050
11.64260 0.64005 22.74750
11.23660 0.63905 22.68950
10.84650 0.63905 22.65750
10.45650 0.38795 22.71550
10.05150 0.38795 22.69850
9.64550 0.38695 22.70750
9.25550 0.38695 22.70350
8.86550 0.13605 22.68050
8.45950 0.13605 22.75550
8.06960 0.13605 22.69750
7.67950 0.13505 22.71050
7.27450 -0.11495 22.72650
6.88450 -0.11595 22.73550
6.49450 -0.11595 22.75950
6.10350 -0.11705 22.70950
5.71440 -0.36705 22.85850
5.30850 -0.36805 22.77650
4.90260 -0.36805 22.83750
4.51260 -0.36805 22.73550
4.12250 -0.36895 22.76950
3.71750 -0.61895 22.74450
3.32750 -0.61995 22.76350
2.93750 -0.61995 22.79150
2.53150 -0.62095 22.76650
2.14150 -0.87095 22.77950
1.75160 -0.87205 22.77850
1.34560 -0.87205 22.74050
0.95550 -0.87205 22.83650
0.55050 -1.12305 22.83150
0.16050 -1.12305 22.80950
-0.22950 -1.12405 22.75750
-0.63550 -1.12405 22.83050
-1.02550 -1.37495 22.75950
-1.41560 -1.37495 22.86650
-1.80540 -1.37595 22.92250
-2.21140 -1.37595 22.87350
-2.61650 -1.62695 22.89550
-3.00650 -1.62695 22.80750
-3.41250 -1.62695 22.79350
-3.80250 -1.62805 22.79450
-4.20750 -1.87805 22.79650
-4.61350 -1.87895 22.75450
-5.00340 -1.87895 22.75150
-5.40950 -1.87995 22.67550
-5.79950 -1.87995 22.79050
-6.18950 -2.13095 22.81950
-6.59450 -2.13095 22.75350
-6.98450 -2.13095 22.72050
-7.39050 -2.13195 22.74550
-7.78050 -2.38195 22.76350
-8.18660 -2.38305 22.75450
-8.57640 -2.38305 22.74750
-8.98150 -2.38405 22.72450
-9.37150 -2.63405 22.85050
-9.77750 -2.63495 22.81050
-10.18350 -2.63495 22.83050
-10.57350 -2.63495 22.71650
-10.97850 -2.88595 22.70750
-11.38450 -2.88595 22.67950
-11.77440 -2.88695 22.74350
-12.18040 -2.88695 22.64550
-12.56950 -3.13805 22.66250
-12.97550 -3.13805 22.67350
-13.36550 -3.13905 22.69650
-13.77150 -3.13905 22.66250
-14.17650 -3.38995 22.66950
-14.56660 -3.38995 22.67550
-14.97240 -3.38995 22.63350
-15.65950 -3.14095 19.32450
-16.06450 -3.39195 19.32750
-16.45450 -3.39195 19.29050
-16.84550 -3.39195 19.51050
-17.14150 -3.64305 20.54350
-17.54650 -3.64305 20.56750
-18.03050 -3.64405 19.57450
-18.45140 -3.64405 19.48550
-18.85740 -3.64405 19.41450
-19.26250 -3.89495 19.32150
-19.66850 -3.89595 19.33350
-20.07450 -3.89595 19.33750
-20.46450 -3.89595 19.35750
-20.88550 -4.14695 19.33250
-21.27550 -4.14695 19.34650
-21.68150 -4.14805 19.33450
-22.08750 -4.14805 19.31350
-22.49250 -4.39905 19.29850
-22.89750 -4.39905 19.28550
-23.30350 -4.39995 19.32050
-23.69350 -4.39995 19.32650
-24.09950 -4.65095 19.26550
-24.50450 -4.65095 19.28150
-24.91050 -4.65095 19.26850
-25.30040 -4.65195 19.32750
-25.54950 -4.90195 20.78750
-25.73740 -4.65195 20.75650
-25.48740 -4.65195 19.33850
-25.09740 -4.65195 19.21950
-24.69250 -4.40095 19.23250
-24.28650 -4.40095 19.30550
-23.88150 -4.39995 19.33250
-23.47550 -4.39995 19.33850
-23.08550 -4.14905 19.28150
-22.68040 -4.14905 19.30850
-22.27440 -4.14805 19.35450
-21.86850 -4.14805 19.33950
-21.46350 -3.89695 19.33350
-21.05750 -3.89695 19.33550
-20.66750 -3.89595 19.34450
-20.26150 -3.89595 19.34750
-19.85650 -3.64495 19.35050
-19.45050 -3.64495 19.32350
-19.06040 -3.64495 19.29250
-18.63950 -3.64405 19.37850
-18.21850 -3.39405 19.59150
-17.75050 -3.39305 20.54750
-17.34450 -3.39305 20.60950
-17.06350 -3.39195 19.30150
-16.65850 -3.14195 19.29250
-16.25250 -3.14095 19.28350
-15.84650 -3.14095 19.30550
-15.17540 -3.13995 22.62650
-14.77050 -3.13995 22.62650
-14.36450 -3.13995 22.63250
-13.97450 -3.13905 22.67050
-13.56850 -2.88905 22.70950
-13.17850 -2.88805 22.67650
-12.78850 -2.88805 22.66550
-12.38250 -2.88695 22.66350
-11.97740 -2.63695 22.68850
-11.58760 -2.63595 22.66450
-11.18150 -2.63595 22.82950
-10.79150 -2.63595 22.83150
-10.38550 -2.63495 22.83550
-9.99650 -2.38495 22.78850
-9.60650 -2.38405 22.79050
-9.20050 -2.38405 22.73950
-8.81040 -2.38305 22.71750
-8.40550 -2.13305 22.77850
-8.01460 -2.13195 22.75050
-7.60950 -2.13195 22.75750
-7.21950 -2.13195 22.77250
-6.82950 -1.88095 22.75950
-6.42350 -1.88095 22.78750
-6.01750 -1.87995 22.73450
-5.62750 -1.87995 22.74550
