17.5703 1.2500 4.8455
17.4297 1.7500 4.8425
17.2734 2.0000 5.5115
17.1641 2.5000 4.0285
17.0391 3.0000 3.9105
17.1797 4.0000 -4.3255
17.0391 4.5000 -4.2185
17.4453 4.2500 -4.2235
17.4453 2.7500 4.0475
17.5859 2.5000 4.0485
17.6953 1.7500 5.0565
17.8359 1.5000 4.8415
17.9766 1.0000 4.8065
18.1172 0.7500 4.8375
18.2422 0.2500 4.8265
18.3828 -0.2500 4.8605
18.5234 -0.7500 4.8825
18.6641 -1.0000 4.8545
18.8047 -1.5000 4.8745
18.9453 -2.0000 4.8585
19.0859 -2.2500 4.8715
19.2109 -2.7500 4.8485
19.3516 -3.2500 4.8805
19.4922 -3.5000 4.8655
19.6328 -4.0000 4.8735
19.7734 -4.5000 4.8865
19.9141 -4.7500 4.8835
20.0391 -5.2500 4.8975
20.1797 -5.7500 4.8995
20.3203 -6.0000 4.9045
20.4609 -6.5000 4.8205
20.5859 -7.0000 4.9185
20.7266 -7.2500 4.9275
20.8672 -7.7500 4.9165
21.0078 -8.2500 4.8915
21.1328 -8.5000 4.9065
21.2734 -9.0000 4.9115
21.4141 -9.5000 4.9075
21.5547 -9.7500 4.9165
21.6953 -10.2500 4.9455
21.8359 -10.7500 4.9085
21.9609 -11.0000 4.8985
22.1016 -11.5000 4.8765
22.2422 -12.0000 4.9025
22.3828 -12.2500 4.8885
22.5078 -12.7500 4.8735
22.6484 -13.2500 4.8855
22.7891 -13.5000 4.8435
22.9141 -14.0000 4.8915
23.0547 -14.5000 4.8545
23.1953 -14.7500 4.8535
23.3359 -15.2500 4.8425
23.4609 -15.7500 4.8555
23.6016 -16.0000 4.8455
23.7422 -16.5000 4.7635
23.8516 -17.0000 5.4835
24.0391 -17.2500 4.0775
24.1797 -17.7500 4.1135
24.3203 -18.0000 3.8745
24.6016 -18.2500 -0.3625
24.9453 -18.0000 -0.2845
24.6641 -18.0000 3.9105
24.5078 -17.7500 4.6295
24.3828 -17.2500 4.0385
24.2109 -17.0000 5.3685
24.0859 -16.5000 4.7875
23.9453 -16.0000 4.8475
23.8203 -15.5000 4.8425
23.6797 -15.2500 4.8305
23.5391 -14.7500 4.8345
23.4141 -14.2500 4.8105
23.2734 -14.0000 4.8495
23.1328 -13.5000 4.8325
22.9922 -13.0000 4.8595
22.8516 -12.7500 4.8475
22.7266 -12.2500 4.8635
22.5859 -11.7500 4.8845
22.4453 -11.5000 4.8765
22.3203 -11.0000 4.8985
22.1797 -10.5000 4.8835
22.0391 -10.2500 4.8565
21.9141 -9.7500 4.9075
21.7734 -9.2500 4.8865
21.6328 -9.0000 4.9025
21.4922 -8.5000 4.9055
21.3516 -8.0000 4.9305
21.2109 -7.7500 4.8835
21.0859 -7.2500 4.9215
20.9453 -6.7500 4.9105
20.8047 -6.5000 4.9295
20.6797 -6.0000 4.8895
20.5391 -5.5000 4.8455
20.3984 -5.2500 4.8585
20.2734 -4.7500 4.8915
20.1328 -4.2500 4.8825
19.9922 -4.0000 4.8745
19.8516 -3.5000 4.8665
19.7109 -3.0000 4.8595
19.5859 -2.7500 4.8625
19.4453 -2.2500 4.8755
19.3047 -1.7500 4.8775
19.1641 -1.5000 4.8725
19.0391 -1.0000 4.8665
18.8984 -0.5000 4.8545
18.7578 0.0000 4.8355
18.6172 0.2500 4.8465
18.4922 0.7500 4.8205
18.3516 1.2500 4.8325
18.2109 1.5000 4.8225
18.0703 2.0000 5.3945
17.9453 2.5000 3.9815
17.8203 3.0000 3.9555
17.9609 4.0000 -4.3945
17.8203 4.5000 -4.2335
17.9453 4.2500 -4.2565
17.9453 3.0000 3.9975
18.0703 2.5000 4.0215
18.1953 2.0000 5.1695
18.3359 1.5000 4.8225
18.4609 1.0000 4.8455
18.6016 0.7500 4.8485
18.7422 0.2500 4.8515
18.8828 -0.2500 4.8465
19.0234 -0.5000 4.8605
19.1641 -1.0000 4.8505
19.3047 -1.5000 4.8235
19.4453 -1.7500 4.8885
19.5703 -2.2500 4.8355
19.7109 -2.7500 4.8735
19.8516 -3.0000 4.8805
19.9766 -3.5000 4.9155
20.1172 -4.0000 4.8855
20.2578 -4.5000 4.8965
20.3984 -4.7500 4.8975
20.5234 -5.2500 4.8275
20.6641 -5.7500 4.8985
20.8047 -6.0000 4.9185
20.9453 -6.5000 4.9185
21.0859 -7.0000 4.9095
21.2109 -7.2500 4.9135
21.3516 -7.7500 4.8675
21.4922 -8.2500 4.8975
21.6328 -8.5000 4.9195
21.7734 -9.0000 4.9245
21.8984 -9.5000 4.8985
22.0391 -9.7500 4.8915
22.1797 -10.2500 4.9065
22.3047 -10.7500 4.9355
22.4453 -11.0000 4.8805
22.5859 -11.5000 4.8965
22.7109 -12.0000 4.8925
22.8516 -12.2500 4.8865
22.9922 -12.7500 4.8805
23.1328 -13.2500 4.8605
23.2734 -13.5000 4.8405
23.4141 -14.0000 4.8655
23.5391 -14.5000 4.8345
23.6797 -14.7500 4.8575
23.8203 -15.2500 4.8545
23.9453 -15.7500 4.8415
24.0859 -16.0000 4.8415
24.2266 -16.5000 4.7825
24.3516 -17.0000 5.4145
24.5234 -17.2500 4.0875
24.6484 -17.7500 4.4555
24.8047 -18.0000 3.8945
25.0703 -18.2500 -0.3495
25.0703 -18.0000 3.9965
24.9141 -17.7500 4.4875
24.8047 -17.2500 4.0805
24.6328 -16.7500 5.1115
24.4922 -16.5000 4.8305
24.3672 -16.0000 4.8405
24.2266 -15.5000 4.8355
24.0859 -15.2500 4.8305
23.9609 -14.7500 4.8195
23.8203 -14.2500 4.8235
23.6797 -14.0000 4.8355
23.5547 -13.5000 4.8545
23.4141 -13.0000 4.8605
23.2734 -12.7500 4.8725
23.1328 -12.2500 4.8615
22.9922 -11.7500 4.9005
22.8672 -11.5000 4.8925
22.7266 -11.0000 4.8815
22.5859 -10.5000 4.8925
22.4609 -10.2500 4.8925
22.3203 -9.7500 4.9165
22.1797 -9.2500 4.9105
22.0547 -9.0000 4.8975
21.9141 -8.5000 4.8995
21.7734 -8.0000 4.9095
21.6328 -7.7500 4.8405
21.4922 -7.2500 4.8715
21.3516 -6.7500 4.9125
21.2266 -6.5000 4.9095
21.0859 -6.0000 4.8765
20.9453 -5.5000 4.9175
20.8203 -5.2500 4.8875
20.6797 -4.7500 4.8665
20.5547 -4.2500 4.8055
20.4141 -4.0000 4.8775
20.2734 -3.5000 4.8625
20.1328 -3.0000 4.8845
19.9922 -2.5000 4.8635
19.8516 -2.2500 4.8845
19.7266 -1.7500 4.8735
19.5859 -1.2500 4.8675
19.4453 -1.0000 4.8695
19.3203 -0.5000 4.8505
19.1797 0.0000 4.8385
19.0391 0.2500 4.8345
18.9141 0.7500 4.8165
18.7734 1.2500 4.8435
18.6328 1.5000 4.7885
18.4766 2.0000 5.5175
18.3672 2.5000 3.9395
18.2266 3.0000 3.9315
18.3672 4.0000 -4.3395
18.2266 4.5000 -4.2275
18.5547 3.0000 3.9555
18.6953 4.0000 -4.3295
18.6953 2.5000 4.0035
18.8047 2.0000 5.4915
18.9453 1.5000 4.7925
19.0859 1.2500 4.8255
19.2109 0.7500 4.8505
19.3516 0.2500 4.8545
19.4922 0.0000 4.8405
19.6328 -0.5000 4.8455
19.7734 -1.0000 4.8425
19.9141 -1.2500 4.8545
20.0547 -1.7500 4.8605
20.1953 -2.2500 4.8735
20.3359 -2.5000 4.8725
20.4609 -3.0000 4.8965
20.6016 -3.5000 4.8245
20.7422 -3.7500 4.9045
20.8828 -4.2500 4.8975
21.0234 -4.7500 4.8965
21.1641 -5.0000 4.9075
21.3047 -5.5000 4.8995
21.4297 -6.0000 4.8895
21.5703 -6.2500 4.9225
21.7109 -6.7500 4.9035
21.8516 -7.2500 4.8995
21.9922 -7.5000 4.8315
22.1172 -8.0000 4.9075
22.2578 -8.5000 4.8975
22.3984 -9.0000 4.9105
22.5391 -9.2500 4.9015
22.6641 -9.7500 4.9145
22.8047 -10.2500 4.9065
22.9453 -10.5000 4.8835
23.0859 -11.0000 4.8885
23.2109 -11.5000 4.8915
23.3516 -11.7500 4.8695
23.4922 -12.2500 4.8565
23.6328 -12.7500 4.8655
23.7734 -13.0000 4.8725
23.9141 -13.5000 4.8395
24.0547 -14.0000 4.8505
24.1953 -14.2500 4.8435
24.3203 -14.7500 4.8325
24.4609 -15.0000 4.8235
24.6016 -15.5000 4.8405
24.7422 -16.0000 4.8385
24.8672 -16.5000 4.8465
24.9922 -16.7500 5.0535
25.1641 -17.2500 4.0865
25.3047 -17.5000 4.0255
25.4453 -18.0000 3.9655
25.8359 -18.0000 3.9615
25.6953 -17.7500 4.0145
25.5547 -17.2500 4.0775
25.3828 -17.0000 5.0885
25.2578 -16.5000 4.8415
25.1172 -16.0000 4.8495
24.9766 -15.7500 4.8245
24.8359 -15.2500 4.8575
24.7109 -14.7500 4.8385
24.5703 -14.5000 4.8645
24.4297 -14.0000 4.8515
24.3047 -13.5000 4.8365
24.1641 -13.2500 4.8715
24.0234 -12.7500 4.8545
23.8828 -12.2500 4.8755
23.7422 -12.0000 4.8595
23.6016 -11.5000 4.8585
23.4609 -11.0000 4.8735
23.3359 -10.7500 4.8955
23.1953 -10.2500 4.8965
23.0547 -9.7500 4.8825
22.9297 -9.2500 4.8765
22.7891 -9.0000 4.9055
22.6484 -8.5000 4.8955
22.5078 -8.0000 4.8975
22.3828 -7.7500 4.8145
22.2422 -7.2500 4.8595
22.1016 -6.7500 4.9085
21.9609 -6.5000 4.8905
21.8359 -6.0000 4.8955
21.6953 -5.5000 4.9005
21.5547 -5.2500 4.9205
21.4141 -4.7500 4.8815
21.2734 -4.2500 4.8885
21.1328 -4.0000 4.8725
21.0078 -3.5000 4.8655
20.8672 -3.0000 4.8805
20.7266 -2.7500 4.8095
20.5859 -2.2500 4.8675
20.4609 -1.7500 4.8615
20.3203 -1.5000 4.8605
20.1797 -1.0000 4.8485
20.0391 -0.5000 4.8235
19.9141 -0.2500 4.8495
19.7734 0.2500 4.8525
19.6328 0.7500 4.8065
19.4922 1.2500 4.8265
19.3516 1.5000 4.8655
19.2109 2.0000 5.4955
19.1016 2.5000 3.9795
18.9609 3.0000 3.9165
19.1016 4.0000 -4.3095
19.0547 3.0000 3.9095
19.1953 4.0000 -4.3835
19.1953 2.5000 3.9565
19.3047 2.0000 5.5035
19.4453 1.5000 4.8575
19.6016 1.0000 4.8345
19.7422 0.7500 4.8445
19.8828 0.2500 4.8325
20.0234 -0.2500 4.8405
20.1641 -0.5000 4.8545
20.3047 -1.0000 4.8635
20.4453 -1.5000 4.8605
20.5703 -1.7500 4.8905
20.7109 -2.2500 4.8165
20.8516 -2.7500 4.8865
20.9922 -3.2500 4.8685
21.1328 -3.5000 4.8975
21.2734 -4.0000 4.8965
21.4141 -4.5000 4.8775
21.5547 -4.7500 4.9085
21.6953 -5.2500 4.8695
21.8359 -5.7500 4.9085
21.9609 -6.0000 4.9205
22.1016 -6.5000 4.9055
22.2422 -7.0000 4.8965
22.3828 -7.2500 4.8915
22.5234 -7.7500 4.8315
22.6641 -8.2500 4.8975
22.8047 -8.7500 4.8975
22.9297 -9.0000 4.8925
23.0703 -9.5000 4.8935
23.2109 -10.0000 4.8445
23.3516 -10.2500 4.8985
23.4922 -10.7500 4.8735
23.6172 -11.2500 4.8485
23.7578 -11.5000 4.8755
23.8984 -12.0000 4.8595
24.0391 -12.5000 4.8555
24.1641 -12.7500 4.8075
24.3047 -13.2500 4.8365
24.4453 -13.7500 4.8395
24.5859 -14.0000 4.8395
24.7109 -14.5000 4.8455
24.8516 -15.0000 4.8785
24.9922 -15.2500 4.8305
25.1328 -15.7500 4.8575
25.2734 -16.2500 4.8155
25.4141 -16.5000 4.7885
25.5234 -17.0000 5.5105
25.7109 -17.2500 4.0175
25.8359 -17.7500 4.0045
25.9766 -18.2500 3.9185
26.3359 -18.2500 3.8405
26.1797 -18.0000 3.9825
26.0547 -17.5000 4.0155
25.8672 -17.2500 5.4545
25.7422 -16.7500 4.7895
25.6016 -16.2500 4.7995
25.4609 -16.0000 4.8395
25.3359 -15.5000 4.8495
25.1953 -15.0000 4.8255
25.0547 -14.7500 4.8415
24.9297 -14.2500 4.8455
24.7891 -13.7500 4.8655
24.6484 -13.5000 4.8625
24.5234 -13.0000 4.7955
24.3828 -12.5000 4.8805
24.2422 -12.2500 4.8425
24.1016 -11.7500 4.8785
23.9609 -11.2500 4.8785
23.8359 -11.0000 4.8785
23.6953 -10.5000 4.8935
23.5547 -10.0000 4.8795
23.4141 -9.7500 4.8805
23.2891 -9.2500 4.8675
23.1484 -8.7500 4.9145
23.0078 -8.5000 4.8865
22.8828 -8.0000 4.8895
22.7422 -7.5000 4.8785
22.6016 -7.0000 4.8445
22.4609 -6.7500 4.9155
22.3359 -6.2500 4.9055
22.1953 -5.7500 4.8805
22.0547 -5.5000 4.8855
21.9141 -5.0000 4.8845
21.7734 -4.5000 4.8875
21.6328 -4.2500 4.8825
21.5078 -3.7500 4.8965
21.3672 -3.2500 4.8425
21.2266 -3.0000 4.8745
21.1016 -2.5000 4.8535
20.9609 -2.0000 4.8695
20.8203 -1.7500 4.7765
20.6797 -1.2500 4.8425
20.5547 -0.7500 4.8605
20.4141 -0.5000 4.8605
20.2734 0.0000 4.8745
20.1328 0.5000 4.8335
19.9922 0.7500 4.8375
19.8516 1.2500 4.8075
19.7109 1.7500 5.0805
19.6016 2.2500 4.0135
19.4609 2.7500 3.9775
19.4609 4.2500 -4.2645
19.7109 3.0000 3.9555
19.8516 4.0000 -4.3025
19.8516 2.5000 3.9785
19.9609 2.0000 5.5835
20.1016 1.5000 4.9045
20.2422 1.2500 4.8525
20.3828 0.7500 4.8635
20.5234 0.2500 4.8445
20.6641 0.0000 4.8705
20.8047 -0.5000 4.8255
20.9453 -1.0000 4.8725
21.0859 -1.2500 4.8525
21.2109 -1.7500 4.8805
21.3516 -2.2500 4.8965
21.4922 -2.7500 4.9005
21.6328 -3.0000 4.9165
21.7734 -3.5000 4.8845
21.9141 -4.0000 4.8995
22.0547 -4.2500 4.8995
22.1953 -4.7500 4.8885
22.3359 -5.2500 4.8975
22.4609 -5.5000 4.9265
22.6016 -6.0000 4.9165
22.7422 -6.5000 4.9045
22.8828 -6.7500 4.8895
23.0234 -7.2500 4.8865
23.1641 -7.7500 4.8775
23.3047 -8.0000 4.8595
23.4453 -8.5000 4.8775
23.5859 -9.0000 4.9075
23.7109 -9.2500 4.9135
23.8516 -9.7500 4.8715
23.9922 -10.2500 4.8885
24.1328 -10.5000 4.8925
24.2734 -11.0000 4.8955
24.4141 -11.5000 4.8705
24.5391 -11.7500 4.8735
24.6797 -12.2500 4.8645
24.8203 -12.7500 4.8515
24.9609 -13.0000 4.8315
25.1016 -13.5000 4.8335
25.2266 -14.0000 4.8615
25.3672 -14.2500 4.8395
25.5078 -14.7500 4.8385
25.6484 -15.2500 4.8355
25.7734 -15.5000 4.8475
25.9141 -16.0000 4.8595
26.0547 -16.5000 4.8395
26.1953 -16.7500 4.8855
26.3516 -17.2500 4.3015
26.4922 -17.5000 4.0295
26.6328 -18.0000 3.9965
27.1016 -18.2500 3.9305
26.9609 -17.7500 3.9925
26.8359 -17.5000 4.0385
26.6484 -17.0000 5.3875
26.5234 -16.7500 4.7775
26.3828 -16.2500 4.8145
26.2422 -15.7500 4.8475
26.1016 -15.5000 4.8425
25.9766 -15.0000 4.8315
25.8359 -14.5000 4.8275
25.6953 -14.2500 4.8685
25.5703 -13.7500 4.8435
25.4297 -13.2500 4.8565
25.2891 -13.0000 4.8615
25.1484 -12.5000 4.8645
25.0078 -12.0000 4.8665
24.8828 -11.7500 4.8875
24.7422 -11.2500 4.8625
24.6016 -10.7500 4.8725
24.4609 -10.5000 4.8605
24.3359 -10.0000 4.8965
24.1953 -9.5000 4.8675
24.0547 -9.2500 4.8765
23.9141 -8.7500 4.8715
23.7734 -8.2500 4.8735
23.6328 -7.7500 4.8345
23.4922 -7.5000 4.8805
23.3516 -7.0000 4.8985
23.2266 -6.5000 4.8875
23.0859 -6.2500 4.9005
22.9453 -5.7500 4.9125
22.8047 -5.2500 4.8855
22.6797 -5.0000 4.9015
22.5391 -4.5000 4.8705
22.3984 -4.0000 4.8825
22.2578 -3.7500 4.8815
22.1328 -3.2500 4.8845
21.9922 -2.7500 4.8705
21.8516 -2.5000 4.8535
21.7109 -2.0000 4.8795
21.5703 -1.5000 4.8515
21.4453 -1.2500 4.8595
21.3047 -0.7500 4.8565
21.1641 -0.2500 4.8525
21.0234 0.0000 4.7695
20.8828 0.5000 4.7955
20.7422 1.0000 4.8145
20.6016 1.2500 4.7825
20.4609 1.7500 5.3225
20.3516 2.2500 3.9975
20.2109 2.7500 3.9965
20.3516 3.7500 -4.4825
20.2109 4.2500 -4.2155
20.2891 4.2500 -4.1975
20.3047 2.7500 3.9845
20.4453 3.7500 -4.4005
20.4453 2.2500 3.9635
20.5547 1.7500 5.2965
20.6953 1.2500 4.7535
20.8359 1.0000 4.8035
20.9766 0.5000 4.7985
21.1016 0.0000 4.8565
21.2422 -0.2500 4.8405
21.3828 -0.7500 4.8725
21.5234 -1.2500 4.8625
21.6641 -1.5000 4.8755
21.8047 -2.0000 4.8755
21.9453 -2.5000 4.8795
22.0859 -2.7500 4.9035
22.2109 -3.2500 4.8655
22.3516 -3.7500 4.9005
22.4922 -4.0000 4.8635
22.6328 -4.5000 4.8715
22.7734 -5.0000 4.8875
22.9141 -5.2500 4.8825
23.0547 -5.7500 4.8845
23.1953 -6.2500 4.8895
23.3203 -6.5000 4.9145
23.4609 -7.0000 4.8925
23.6016 -7.5000 4.8915
23.7422 -7.7500 4.7785
23.8828 -8.2500 4.8925
24.0078 -8.7500 4.8955
24.1484 -9.2500 4.8805
24.2891 -9.5000 4.8865
24.4297 -10.0000 4.8635
24.5703 -10.5000 4.8845
24.6953 -10.7500 4.8915
24.8359 -11.2500 4.9035
24.9766 -11.7500 4.8445
25.1016 -12.0000 4.9055
25.2422 -12.5000 4.8765
25.3828 -13.0000 4.8715
25.5234 -13.2500 4.8535
25.6641 -13.7500 4.8385
25.8047 -14.2500 4.8595
25.9453 -14.5000 4.8625
26.0859 -15.0000 4.8585
26.2109 -15.5000 4.8305
26.3516 -15.7500 4.8275
26.4922 -16.2500 4.8135
26.6328 -16.5000 4.7915
26.7422 -17.0000 5.3935
26.9141 -17.5000 4.0345
27.0547 -17.7500 4.0065
27.1953 -18.2500 3.9515
27.3984 -18.2500 3.9615
27.2578 -17.7500 4.0125
27.1172 -17.5000 4.0405
26.9453 -17.0000 5.2565
26.8359 -16.7500 4.7925
26.6953 -16.2500 4.8545
26.5547 -15.7500 4.8275
26.4141 -15.5000 4.8205
26.2734 -15.0000 4.8255
26.1328 -14.5000 4.8525
25.9922 -14.2500 4.8715
25.8672 -13.7500 4.8585
25.7266 -13.2500 4.8445
25.5859 -13.0000 4.8715
25.4609 -12.5000 4.8705
25.3203 -12.0000 4.8545
25.1797 -11.7500 4.8505
25.0547 -11.2500 4.8525
24.9141 -10.7500 4.8975
24.7734 -10.5000 4.8615
24.6328 -10.0000 4.8695
24.4922 -9.5000 4.8715
24.3516 -9.2500 4.8705
24.2109 -8.7500 4.8675
24.0859 -8.2500 4.9075
23.9453 -8.0000 4.8655
23.8047 -7.5000 4.8765
23.6641 -7.0000 4.9025
23.5234 -6.7500 4.8925
23.3984 -6.2500 4.8775
23.2578 -5.7500 4.9015
23.1172 -5.2500 4.8995
22.9922 -5.0000 4.8755
22.8516 -4.5000 4.8675
22.7109 -4.0000 4.9115
22.5703 -3.7500 4.8935
22.4453 -3.2500 4.8815
22.3047 -2.7500 4.8825
22.1641 -2.5000 4.8755
22.0234 -2.0000 4.8545
21.8828 -1.5000 4.8715
21.7422 -1.2500 4.8815
21.6016 -0.7500 4.8535
21.4609 -0.2500 4.8765
21.3359 0.0000 4.8605
21.1953 0.5000 4.8495
21.0547 1.0000 4.8045
20.9141 1.2500 4.7995
20.7734 1.7500 5.3715
20.6641 2.2500 4.0175
20.5234 2.7500 4.0085
20.6641 3.7500 -4.4235
20.5078 4.2500 -4.1955
20.8828 4.2500 -4.2035
20.8828 2.7500 3.9555
21.0234 3.7500 -4.2775
21.0078 2.2500 5.0515
21.1484 1.7500 5.0905
21.2891 1.5000 4.9225
21.4297 1.0000 4.8625
21.5703 0.5000 4.8435
21.7109 0.2500 4.8675
21.8516 -0.2500 4.8715
21.9922 -0.7500 4.8705
22.1328 -1.0000 4.8575
22.2734 -1.5000 4.8925
22.4141 -2.0000 4.8865
22.5547 -2.5000 4.8925
22.6953 -2.7500 4.8585
22.8359 -3.2500 4.8885
22.9609 -3.7500 4.9055
23.1016 -4.0000 4.8735
23.2422 -4.5000 4.8695
23.3828 -5.0000 4.9075
23.5234 -5.2500 4.8925
23.6641 -5.7500 4.8965
23.8047 -6.2500 4.8985
23.9453 -6.5000 4.8865
24.0859 -7.0000 4.8825
24.2109 -7.5000 4.8865
24.3516 -7.7500 4.8115
24.4922 -8.2500 4.8805
24.6328 -8.7500 4.8405
24.7734 -9.0000 4.8975
24.9141 -9.5000 4.8815
25.0547 -10.0000 4.8695
25.1953 -10.2500 4.9015
25.3359 -10.7500 4.8765
25.4609 -11.2500 4.8565
25.6016 -11.5000 4.8865
25.7422 -12.0000 4.8645
25.8828 -12.5000 4.8715
26.0234 -12.7500 4.8725
26.1641 -13.2500 4.8705
26.3047 -13.7500 4.8555
26.4453 -14.0000 4.8455
26.5859 -14.5000 4.8685
26.7109 -15.0000 4.8355
26.8516 -15.2500 4.8545
26.9922 -15.7500 4.8685
27.1328 -16.2500 4.8415
27.2734 -16.5000 4.8495
27.3984 -17.0000 5.0745
27.5703 -17.2500 4.0585
27.7109 -17.7500 4.0225
27.8516 -18.2500 4.0145
28.1953 -18.0000 4.0655
28.0547 -17.5000 4.0465
27.8828 -17.2500 5.3415
27.7578 -16.7500 4.8155
27.6172 -16.2500 4.8525
27.4766 -16.0000 4.8475
27.3359 -15.5000 4.8215
27.1953 -15.0000 4.8395
27.0547 -14.7500 4.8555
26.9297 -14.2500 4.8475
26.7891 -13.7500 4.8295
26.6484 -13.5000 4.8565
26.5078 -13.0000 4.8695
26.3672 -12.5000 4.8455
26.2422 -12.2500 4.8665
26.1016 -11.7500 4.8435
25.9609 -11.2500 4.8575
25.8203 -10.7500 4.8425
25.6797 -10.5000 4.8585
25.5547 -10.0000 4.8365
25.4141 -9.5000 4.8595
25.2734 -9.2500 4.8835
25.1328 -8.7500 4.7915
24.9922 -8.2500 4.8815
24.8516 -8.0000 4.8195
24.7109 -7.5000 4.8725
24.5859 -7.0000 4.8915
24.4453 -6.7500 4.8875
24.3047 -6.2500 4.8775
24.1641 -5.7500 4.8825
24.0234 -5.5000 4.8585
23.8828 -5.0000 4.9015
23.7422 -4.5000 4.8555
23.6016 -4.2500 4.8765
23.4609 -3.7500 4.8835
23.3359 -3.2500 4.8595
23.1953 -3.0000 4.8775
23.0547 -2.5000 4.8935
22.9141 -2.0000 4.8875
22.7734 -1.7500 4.8445
22.6328 -1.2500 4.8755
22.4922 -0.7500 4.8855
22.3672 -0.5000 4.8585
22.2266 0.0000 4.8745
22.0859 0.5000 4.8295
21.9453 0.7500 4.8925
21.8047 1.2500 4.7715
21.6641 1.7500 5.4255
21.5234 2.0000 5.0445
21.4141 2.7500 4.1115
21.6016 4.2500 -8.0035
21.3984 4.2500 -4.2115
21.3516 4.2500 -4.4425
21.3516 2.7500 3.9275
21.4766 2.2500 4.9485
21.6016 1.7500 5.3025
21.7578 1.5000 4.9555
21.8984 1.0000 4.8735
22.0391 0.7500 4.8765
22.1797 0.2500 4.8575
22.3203 -0.2500 4.8585
22.4453 -0.7500 4.8635
22.5859 -1.0000 4.8605
22.7266 -1.5000 4.8655
22.8672 -2.0000 4.8935
23.0078 -2.2500 4.8645
23.1484 -2.7500 4.8675
23.2891 -3.2500 4.8525
23.4141 -3.5000 4.8815
23.5547 -4.0000 4.8525
23.6953 -4.5000 4.8755
23.8359 -4.7500 4.8615
23.9766 -5.2500 4.8655
24.1172 -5.7500 4.8745
24.2422 -6.0000 4.9065
24.3828 -6.5000 4.8645
24.5234 -7.0000 4.9195
24.6641 -7.2500 4.8715
24.8047 -7.7500 4.8605
24.9453 -8.2500 4.8765
25.0859 -8.5000 4.8915
25.2109 -9.0000 4.8545
25.3516 -9.5000 4.8855
25.4922 -9.7500 4.8715
25.6328 -10.2500 4.8905
25.7734 -10.7500 4.8995
25.9141 -11.0000 4.8695
26.0547 -11.5000 4.8845
26.1953 -12.0000 4.8705
26.3203 -12.2500 4.8835
26.4609 -12.7500 4.8555
26.6016 -13.2500 4.8825
26.7422 -13.5000 4.8375
26.8828 -14.0000 4.8375
27.0078 -14.5000 4.8685
27.1484 -14.7500 4.8715
27.2891 -15.2500 4.8685
27.4297 -15.7500 4.8505
27.5547 -16.0000 4.8555
27.6953 -16.5000 4.8455
27.8359 -17.0000 4.8685
27.9609 -17.2500 5.2375
28.1328 -17.7500 4.1925
28.4922 -18.2500 4.1115
28.2109 -17.5000 4.8445
28.0547 -17.0000 4.9655
27.9297 -16.7500 4.8485
27.7891 -16.2500 4.8355
27.6641 -15.7500 4.8305
27.5234 -15.5000 4.8265
27.3828 -15.0000 4.8445
27.2422 -14.5000 4.8485
27.1016 -14.2500 4.8605
26.9609 -13.7500 4.8575
26.8359 -13.2500 4.8555
26.6953 -13.0000 4.8685
26.5547 -12.5000 4.8895
26.4141 -12.0000 4.8485
26.2734 -11.7500 4.8805
26.1328 -11.2500 4.8505
25.9922 -10.7500 4.8805
25.8672 -10.5000 4.8585
25.7266 -10.0000 4.8815
25.5859 -9.5000 4.8315
25.4453 -9.2500 4.9075
25.3203 -8.7500 4.8375
25.1797 -8.2500 4.8825
25.0391 -7.7500 4.8065
24.8984 -7.5000 4.8175
24.7578 -7.0000 4.9005
24.6328 -6.5000 4.8825
24.4922 -6.2500 4.8435
24.3516 -5.7500 4.8975
24.2109 -5.2500 4.8835
24.0859 -5.0000 4.8665
23.9453 -4.5000 4.9025
23.8047 -4.0000 4.8725
23.6641 -3.7500 4.8505
23.5234 -3.2500 4.8705
23.3828 -2.7500 4.8785
23.2422 -2.5000 4.8595
23.1016 -2.0000 4.8685
22.9609 -1.5000 4.8785
22.8359 -1.2500 4.8655
22.6953 -0.7500 4.8755
22.5547 -0.2500 4.8565
22.4141 0.0000 4.8455
22.2734 0.5000 4.8495
22.1328 1.0000 4.8315
21.9922 1.2500 4.7995
21.8516 1.7500 5.5875
21.7109 2.2500 4.8545
21.6016 2.7500 4.0635
21.7891 4.2500 -8.0525
21.9609 4.0000 -3.8675
21.9922 2.5000 3.9955
22.1016 2.0000 4.7375
22.2422 1.5000 5.3365
22.3828 1.2500 4.8115
22.5234 0.7500 4.8685
22.6641 0.5000 4.8565
22.8047 0.0000 4.8755
22.9453 -0.5000 4.8495
23.0859 -0.7500 4.8615
23.2266 -1.2500 4.8735
23.3672 -1.7500 4.8885
23.5078 -2.2500 4.8695
23.6484 -2.5000 4.8385
23.7891 -3.0000 4.8605
23.9297 -3.5000 4.8745
24.0703 -3.7500 4.8825
24.2109 -4.2500 4.8855
24.3516 -4.7500 4.9005
24.4922 -5.0000 4.9015
24.6328 -5.5000 4.9085
24.7734 -6.0000 4.8955
24.9141 -6.2500 4.9005
25.0547 -6.7500 4.8955
25.1797 -7.2500 4.9065
25.3203 -7.5000 4.8785
25.4609 -8.0000 4.8285
25.6016 -8.5000 4.8595
25.7422 -8.7500 4.8875
25.8828 -9.2500 4.8855
26.0234 -9.7500 4.9065
26.1641 -10.0000 4.8575
26.3047 -10.5000 4.8595
26.4453 -11.0000 4.8935
26.5859 -11.2500 4.8665
26.7109 -11.7500 4.8715
26.8516 -12.2500 4.8755
26.9922 -12.5000 4.8595
27.1328 -13.0000 4.8715
27.2734 -13.5000 4.8635
27.4141 -13.7500 4.8735
27.5547 -14.2500 4.8685
27.6953 -14.7500 4.8575
27.8359 -15.0000 4.8185
27.9609 -15.5000 4.8305
28.1016 -16.0000 4.7485
28.2422 -16.2500 4.7805
28.3828 -16.7500 4.9675
28.4922 -17.2500 5.3465
28.6484 -17.5000 5.1315
28.7109 -16.7500 5.1995
28.5859 -16.2500 5.1595
28.4453 -15.7500 4.9135
28.3203 -15.5000 4.7675
28.1797 -15.0000 4.8115
28.0391 -14.5000 4.8575
27.8984 -14.2500 4.8615
27.7578 -13.7500 4.8665
27.6328 -13.2500 4.8485
27.4922 -13.0000 4.8465
27.3516 -12.5000 4.8455
27.2109 -12.0000 4.8595
27.0703 -11.7500 4.8655
26.9453 -11.2500 4.8485
26.8047 -10.7500 4.8365
26.6641 -10.5000 4.8815
26.5234 -10.0000 4.8605
26.3828 -9.5000 4.8695
26.2422 -9.2500 4.8935
26.1016 -8.7500 4.8805
25.9609 -8.2500 4.8905
25.8359 -7.7500 4.8785
25.6953 -7.5000 4.9045
25.5547 -7.0000 4.9065
25.4141 -6.5000 4.9055
25.2734 -6.2500 4.9025
25.1328 -5.7500 4.9085
24.9922 -5.2500 4.8835
24.8516 -5.0000 4.8755
24.7109 -4.5000 4.8885
24.5859 -4.0000 4.8885
24.4453 -3.7500 4.8935
24.3047 -3.2500 4.8655
24.1641 -2.7500 4.8885
24.0234 -2.5000 4.8745
23.8828 -2.0000 4.8845
23.7422 -1.5000 4.8785
23.6016 -1.2500 4.8515
23.4609 -0.7500 4.8685
23.3359 -0.2500 4.8395
23.1953 0.0000 4.8455
23.0547 0.5000 4.8575
22.9141 1.0000 4.8615
22.7734 1.2500 4.8815
22.6328 1.7500 5.4145
22.4922 2.2500 4.5575
22.3672 2.7500 4.0245
22.4453 2.7500 3.9435
22.5859 2.2500 4.6195
22.6953 1.7500 5.5595
22.8516 1.2500 4.8045
22.9922 1.0000 4.8245
23.1328 0.5000 4.8565
23.2734 0.0000 4.8855
23.4141 -0.2500 4.8645
23.5547 -0.7500 4.8535
23.6953 -1.2500 4.8825
23.8359 -1.5000 4.8805
23.9609 -2.0000 4.8935
24.1016 -2.5000 4.8765
24.2422 -2.7500 4.8735
24.3828 -3.2500 4.8875
24.5234 -3.7500 4.8975
24.6641 -4.0000 4.8825
24.8047 -4.5000 4.8885
24.9453 -5.0000 4.8515
25.0859 -5.5000 4.9075
25.2109 -5.7500 4.9025
25.3516 -6.2500 4.8875
25.4922 -6.7500 4.9225
25.6328 -7.0000 4.8635
25.7734 -7.5000 4.8765
25.9141 -8.0000 4.8805
26.0547 -8.2500 4.9075
26.1953 -8.7500 4.8745
26.3359 -9.2500 4.8955
26.4609 -9.5000 4.8715
26.6016 -10.0000 4.8695
26.7422 -10.5000 4.8615
26.8828 -10.7500 4.8465
27.0234 -11.2500 4.8685
27.1641 -11.7500 4.8435
27.3047 -12.0000 4.8615
27.4453 -12.5000 4.8705
27.5703 -13.0000 4.8765
27.7109 -13.2500 4.8365
27.8516 -13.7500 4.8435
27.9922 -14.2500 4.8785
28.1328 -14.5000 4.8595
28.2734 -15.0000 4.7665
28.4141 -15.5000 4.8075
28.5234 -15.7500 5.1135
28.6641 -16.2500 5.1555
28.7734 -16.7500 6.0635
28.9453 -16.7500 6.4135
28.8359 -16.2500 5.2695
28.6953 -15.7500 5.1525
28.5703 -15.5000 5.0345
28.4453 -15.0000 4.7845
28.3047 -14.5000 4.8205
28.1641 -14.2500 4.8495
28.0234 -13.7500 4.8575
27.8828 -13.2500 4.8405
27.7422 -13.0000 4.8685
27.6016 -12.5000 4.8445
27.4609 -12.0000 4.8505
27.3359 -11.7500 4.8505
27.1953 -11.2500 4.8725
27.0547 -10.7500 4.8505
26.9141 -10.5000 4.8735
26.7734 -10.0000 4.8665
26.6328 -9.5000 4.8835
26.4922 -9.2500 4.8995
26.3516 -8.7500 4.8695
26.2109 -8.2500 4.9125
26.0859 -8.0000 4.9085
25.9453 -7.5000 4.9265
25.8047 -7.0000 4.9005
25.6641 -6.7500 4.8905
25.5234 -6.2500 4.8875
25.3828 -5.7500 4.9005
25.2422 -5.5000 4.8765
25.1172 -5.0000 4.9195
24.9766 -4.5000 4.8715
24.8359 -4.2500 4.8955
24.6953 -3.7500 4.8735
24.5547 -3.2500 4.8885
24.4297 -3.0000 4.8595
24.2891 -2.5000 4.8305
24.1484 -2.0000 4.8595
24.0078 -1.7500 4.8715
23.8672 -1.2500 4.8665
23.7266 -0.7500 4.8445
23.5859 -0.2500 4.8705
23.4453 0.0000 4.8615
23.3047 0.5000 4.8955
23.1797 1.0000 4.8625
23.0391 1.2500 4.8475
22.8828 1.7500 5.6015
22.7578 2.2500 4.5965
22.6328 2.7500 3.9085
23.0859 2.5000 3.9745
23.2109 2.0000 4.0735
23.3359 1.5000 5.0485
23.4766 1.0000 4.8705
23.6172 0.5000 4.8485
23.7578 0.2500 4.8745
23.8984 -0.2500 4.8635
24.0391 -0.7500 4.8825
24.1797 -1.0000 4.8645
24.3203 -1.5000 4.8695
24.4609 -2.0000 4.8705
24.6016 -2.2500 4.8585
24.7422 -2.7500 4.8875
24.8828 -3.2500 4.8795
25.0234 -3.5000 4.8635
25.1641 -4.0000 4.8865
25.3047 -4.5000 4.8645
25.4453 -4.7500 4.8825
25.5859 -5.2500 4.8915
25.7109 -5.7500 4.9055
25.8516 -6.0000 4.9075
25.9922 -6.5000 4.8955
26.1328 -7.0000 4.8865
26.2734 -7.2500 4.8675
26.4141 -7.7500 4.9005
26.5547 -8.2500 4.8605
26.6953 -8.5000 4.8645
26.8359 -9.0000 4.8855
26.9766 -9.5000 4.8905
27.1172 -9.7500 4.8595
27.2578 -10.2500 4.8705
27.3984 -10.7500 4.8575
27.5391 -11.0000 4.8405
27.6797 -11.5000 4.8555
27.8203 -12.0000 4.8505
27.9609 -12.2500 4.8515
28.0859 -12.7500 4.8605
28.2266 -13.2500 4.8775
28.3672 -13.5000 4.8155
28.5078 -14.0000 4.8525
28.6328 -14.5000 5.1045
28.7734 -15.0000 5.1675
28.9141 -15.2500 5.3585
29.0547 -15.7500 5.6435
29.1797 -16.2500 5.8695
29.2422 -15.5000 5.5645
29.1016 -15.0000 5.6055
28.9766 -14.5000 5.3705
28.8516 -14.0000 5.1365
28.7109 -13.7500 5.0965
28.5859 -13.2500 4.8315
28.4453 -12.7500 4.7925
28.3047 -12.5000 4.8575
28.1641 -12.0000 4.8495
28.0234 -11.5000 4.8645
27.8828 -11.2500 4.8195
27.7422 -10.7500 4.8795
27.6016 -10.2500 4.8645
27.4609 -10.0000 4.8585
27.3359 -9.5000 4.8675
27.1953 -9.0000 4.8495
27.0547 -8.7500 4.9015
26.9141 -8.2500 4.8025
26.7734 -7.7500 4.8435
26.6328 -7.5000 4.8745
26.4922 -7.0000 4.8635
26.3516 -6.5000 4.8985
26.2109 -6.2500 4.9105
26.0859 -5.7500 4.8465
25.9453 -5.2500 4.8695
25.8047 -5.0000 4.8455
25.6641 -4.5000 4.8895
25.5234 -4.0000 4.8515
25.3828 -3.7500 4.8965
25.2422 -3.2500 4.8575
25.1016 -2.7500 4.8605
24.9609 -2.2500 4.8615
24.8359 -2.0000 4.8565
24.6953 -1.5000 4.8735
24.5547 -1.0000 4.8615
24.4141 -0.7500 4.8765
24.2734 -0.2500 4.8605
24.1328 0.2500 4.8635
23.9922 0.5000 4.8605
23.8516 1.0000 4.7785
23.7109 1.2500 5.1925
23.5859 1.7500 4.5415
23.4453 2.2500 4.0075
23.4453 2.5000 3.9705
23.5859 2.0000 4.4175
23.7109 1.5000 5.6155
23.8516 1.2500 4.8475
23.9922 0.7500 4.8525
24.1328 0.5000 4.8805
24.2734 0.0000 4.8615
24.4141 -0.5000 4.8485
24.5547 -0.7500 4.8595
24.6953 -1.2500 4.8595
24.8359 -1.7500 4.8845
24.9766 -2.2500 4.8455
25.1172 -2.5000 4.8835
25.2578 -3.0000 4.8725
25.3984 -3.5000 4.8635
25.5234 -3.7500 4.8735
25.6641 -4.2500 4.8585
25.8047 -4.7500 4.8745
25.9453 -5.0000 4.8755
26.0859 -5.5000 4.8745
26.2266 -6.0000 4.9065
26.3672 -6.2500 4.8855
26.5078 -6.7500 4.8835
26.6484 -7.2500 4.8645
26.7891 -7.5000 4.8685
26.9297 -8.0000 4.8305
27.0703 -8.5000 4.8545
27.2109 -8.7500 4.8745
27.3359 -9.2500 4.8715
27.4766 -9.7500 4.8475
27.6172 -10.0000 4.8465
27.7578 -10.5000 4.8675
27.8984 -11.0000 4.8745
28.0391 -11.2500 4.8425
28.1797 -11.7500 4.8595
28.3203 -12.2500 4.8305
28.4609 -12.5000 4.8115
28.6016 -13.0000 4.8355
28.7266 -13.5000 5.1285
28.8672 -13.7500 5.1385
28.9922 -14.2500 5.3475
29.1328 -14.7500 5.6195
29.2109 -14.2500 5.6125
29.0859 -13.7500 5.3265
28.9453 -13.2500 5.1525
28.8047 -12.7500 5.1285
28.6797 -12.5000 4.8295
28.5391 -12.0000 4.8035
28.3984 -11.5000 4.8475
28.2734 -11.2500 4.8705
28.1328 -10.7500 4.8335
27.9922 -10.2500 4.8565
27.8516 -10.0000 4.8585
27.7109 -9.5000 4.8675
27.5703 -9.0000 4.8545
27.4297 -8.7500 4.8865
27.3047 -8.2500 4.7875
27.1641 -7.7500 4.8205
27.0234 -7.5000 4.8665
26.8828 -7.0000 4.8635
26.7422 -6.5000 4.8825
26.6016 -6.2500 4.9025
26.4609 -5.7500 4.8775
26.3359 -5.2500 4.8365
26.1953 -5.0000 4.8675
26.0547 -4.5000 4.8595
25.9141 -4.0000 4.8895
25.7734 -3.5000 4.8425
25.6328 -3.2500 4.8525
25.4922 -2.7500 4.8685
25.3516 -2.2500 4.8475
25.2109 -2.0000 4.8495
25.0703 -1.5000 4.8665
24.9297 -1.0000 4.8585
24.8047 -0.7500 4.8495
24.6641 -0.2500 4.8605
24.5234 0.2500 4.8495
24.3828 0.5000 4.8885
24.2422 1.0000 4.8085
24.0859 1.2500 5.2005
23.9609 1.7500 4.5785
23.8359 2.2500 4.0225
24.0547 2.7500 3.8665
24.1953 2.2500 4.0755
24.3047 1.5000 5.5715
24.4609 1.2500 4.9565
24.6016 0.7500 4.8945
24.7422 0.5000 4.8605
24.8828 0.0000 4.8635
25.0234 -0.5000 4.8745
25.1641 -0.7500 4.8715
25.3047 -1.2500 4.8615
25.4453 -1.7500 4.8815
25.5859 -2.0000 4.8645
25.7266 -2.5000 4.8575
25.8672 -3.0000 4.8545
26.0078 -3.2500 4.8715
26.1484 -3.7500 4.8685
26.2891 -4.2500 4.8635
26.4297 -4.5000 4.8865
26.5703 -5.0000 4.8705
26.7109 -5.5000 4.8935
26.8516 -5.7500 4.8955
26.9922 -6.2500 4.9045
27.1328 -6.7500 4.8775
27.2734 -7.0000 4.8835
27.4141 -7.5000 4.8645
27.5547 -8.0000 4.9135
27.6953 -8.2500 4.8705
27.8359 -8.7500 4.8775
27.9609 -9.2500 4.8825
28.1016 -9.5000 4.8355
28.2422 -10.0000 4.8645
28.3828 -10.5000 4.8785
28.5234 -10.7500 4.8125
28.6641 -11.2500 4.7505
28.8047 -11.7500 5.0965
28.9453 -12.0000 5.1915
29.0859 -12.5000 5.2025
29.2109 -13.0000 5.5325
29.5703 -11.7500 -8.4975
29.3516 -13.5000 5.6235
29.7109 -12.0000 -8.4935
30.0234 -12.0000 -8.5035
29.8828 -11.5000 -8.5035
29.3828 -12.5000 5.6335
29.7266 -11.2500 -8.3795
29.2422 -12.0000 5.4315
29.5859 -10.7500 -8.1825
29.1016 -11.7500 5.1395
28.9609 -11.2500 5.1255
28.8359 -10.7500 4.9765
28.6953 -10.2500 4.7735
28.5547 -10.0000 4.7995
28.4141 -9.5000 4.8655
28.2734 -9.0000 4.8675
28.1328 -8.7500 4.8525
27.9922 -8.2500 4.8725
27.8516 -7.7500 4.8685
27.7109 -7.5000 4.8645
27.5859 -7.0000 4.8615
27.4453 -6.5000 4.8885
27.3047 -6.2500 4.8785
27.1641 -5.7500 4.8765
27.0234 -5.2500 4.8575
26.8828 -5.0000 4.8745
26.7422 -4.5000 4.8435
26.6016 -4.0000 4.8435
26.4609 -3.7500 4.8405
26.3359 -3.2500 4.8655
26.1953 -2.7500 4.8445
26.0547 -2.5000 4.8895
25.9141 -2.0000 4.8695
25.7734 -1.5000 4.8715
25.6328 -1.2500 4.8815
25.4922 -0.7500 4.8625
25.3516 -0.2500 4.8735
25.2109 0.0000 4.8525
25.0703 0.5000 4.8745
24.9297 1.0000 4.7775
24.7734 1.2500 5.2625
24.6641 2.0000 4.0365
24.5234 2.2500 3.9835
24.6016 2.2500 3.9875
24.7422 1.7500 4.4415
24.8828 1.2500 5.2295
25.0234 1.0000 4.8325
25.1641 0.5000 4.8595
25.3047 0.0000 4.8925
25.4453 -0.2500 4.8515
25.5859 -0.7500 4.9005
25.7109 -1.2500 4.8675
25.8516 -1.5000 4.8455
25.9922 -2.0000 4.8585
26.1328 -2.5000 4.8695
26.2734 -2.7500 4.8555
26.4141 -3.2500 4.8595
26.5703 -3.7500 4.8285
26.6953 -4.0000 4.8605
26.8359 -4.5000 4.8915
26.9766 -5.0000 4.8545
27.1172 -5.2500 4.8835
27.2578 -5.7500 4.8705
27.3984 -6.2500 4.8875
27.5391 -6.5000 4.8975
27.6797 -7.0000 4.8655
27.8203 -7.5000 4.8835
27.9609 -7.7500 4.8795
28.1016 -8.2500 4.8485
28.2422 -8.7500 4.8585
28.3828 -9.0000 4.8535
28.5234 -9.5000 4.8835
28.6641 -10.0000 4.8075
28.8047 -10.2500 4.9335
28.9297 -10.7500 5.1215
29.0703 -11.2500 5.1885
29.2109 -11.7500 5.3445
29.5391 -10.2500 -8.2855
29.3359 -12.0000 5.6485
29.6797 -10.7500 -8.1795
29.8359 -11.2500 -8.4105
29.9609 -11.5000 -8.4405
30.1172 -12.0000 -8.4115
30.3516 -12.0000 -8.4705
30.2109 -11.5000 -8.4785
30.0859 -11.2500 -8.4335
29.9297 -10.7500 -8.1575
29.4453 -11.7500 5.6325
29.7734 -10.2500 -8.1275
29.3203 -11.2500 5.3885
29.6328 -10.0000 -8.2385
29.1797 -10.7500 5.2305
29.0547 -10.5000 5.1295
28.9141 -10.0000 4.8675
28.7734 -9.5000 4.7795
28.6328 -9.0000 4.8565
28.4922 -8.7500 4.8595
28.3516 -8.2500 4.8045
28.2109 -7.7500 4.8725
28.0859 -7.5000 4.8545
27.9453 -7.0000 4.8735
27.8047 -6.5000 4.9225
27.6641 -6.2500 4.8755
27.5234 -5.7500 4.9035
27.3828 -5.2500 4.8695
27.2422 -5.0000 4.9005
27.1016 -4.5000 4.8625
26.9609 -4.0000 4.8625
26.8359 -3.7500 4.8695
26.6953 -3.2500 4.8475
26.5547 -2.7500 4.8715
26.4141 -2.5000 4.8775
26.2734 -2.0000 4.8375
26.1328 -1.5000 4.8545
25.9922 -1.2500 4.9015
25.8516 -0.7500 4.8675
25.7109 -0.2500 4.8305
25.5703 0.0000 4.8565
25.4297 0.5000 4.8635
25.2891 1.0000 4.7965
25.1484 1.2500 5.2605
25.0078 1.7500 4.7205
24.8828 2.2500 3.9805
25.1641 2.5000 3.9415
25.3047 2.0000 4.7315
25.4297 1.5000 5.4935
25.5859 1.0000 4.7975
25.7109 0.7500 4.8545
25.8516 0.2500 4.8645
25.9922 -0.2500 4.8705
26.1328 -0.7500 4.8375
26.2891 -1.0000 4.8475
26.4297 -1.5000 4.8515
26.5703 -2.0000 4.8575
26.7109 -2.2500 4.8805
26.8516 -2.7500 4.8635
26.9922 -3.2500 4.8995
27.1328 -3.5000 4.8995
27.2734 -4.0000 4.8545
27.4141 -4.5000 4.8595
27.5547 -4.7500 4.9045
27.6953 -5.2500 4.8715
27.8359 -5.7500 4.8635
27.9609 -6.0000 4.8825
28.1172 -6.5000 4.8845
28.2578 -7.0000 4.8505
28.3516 -7.5000 7.0435
28.3828 -7.2500 5.0395
28.5391 -7.7500 4.8795
28.6797 -8.2500 4.8045
28.8203 -8.5000 4.8305
28.9609 -9.0000 4.9825
29.0859 -9.5000 5.2135
29.2266 -9.7500 5.1745
29.3672 -10.2500 5.3895
29.5547 -9.5000 -2.5255
29.4922 -10.7500 5.6045
29.7891 -9.5000 -6.5395
29.9609 -9.7500 -8.1215
30.1172 -10.2500 -8.1645
30.2578 -10.7500 -8.1505
30.4141 -11.0000 -8.3895
30.5547 -11.5000 -8.4635
30.6953 -12.0000 -8.4485
30.8516 -12.2500 -8.4795
31.0234 -12.0000 -8.5335
30.8828 -11.7500 -8.4865
30.7422 -11.2500 -8.4795
30.6016 -10.7500 -8.4265
30.4453 -10.5000 -8.3065
30.3047 -10.0000 -8.1495
30.1484 -9.5000 -7.8945
29.9141 -9.5000 -3.6735
29.5547 -10.0000 5.6325
29.6641 -9.5000 0.4395
29.4141 -9.7500 5.4375
29.2109 -9.5000 8.2115
29.0859 -9.0000 8.2515
29.1484 -8.7500 5.1565
29.0078 -8.2500 4.9875
28.8828 -8.0000 4.7605
28.6797 -7.7500 7.3035
28.5391 -7.2500 7.2925
28.4141 -7.0000 7.0365
28.4453 -6.7500 4.9665
28.3047 -6.2500 4.9115
28.1641 -5.7500 4.8875
28.0234 -5.5000 4.8785
27.8828 -5.0000 4.9215
27.7422 -4.5000 4.8665
27.6016 -4.2500 4.8765
27.4609 -3.7500 4.8515
27.3359 -3.2500 4.8665
27.1953 -3.0000 4.8755
27.0547 -2.5000 4.8495
26.9141 -2.0000 4.8585
26.7734 -1.7500 4.8305
26.6328 -1.2500 4.8485
26.4922 -0.7500 4.8435
26.3516 -0.5000 4.8625
26.2109 0.0000 4.8655
26.0703 0.5000 4.8625
25.9297 1.0000 4.8005
25.7734 1.2500 5.3035
25.6484 1.7500 4.6255
25.5234 2.2500 3.9625
25.5234 2.5000 3.9695
25.6641 2.0000 4.4015
25.7734 1.5000 5.5925
25.9453 1.0000 4.8215
26.0859 0.7500 4.8565
26.2109 0.2500 4.8995
26.3516 -0.2500 4.8205
26.4922 -0.5000 4.8615
26.6328 -1.0000 4.8435
26.7734 -1.5000 4.8825
26.9141 -1.7500 4.8505
27.0547 -2.2500 4.8485
27.1953 -2.7500 4.8715
27.3359 -3.2500 4.8835
27.4766 -3.5000 4.8825
27.6172 -4.0000 4.8745
27.7578 -4.5000 4.8745
27.8984 -4.7500 4.8605
28.0391 -5.2500 4.8685
28.1953 -5.7500 4.8805
28.3359 -6.0000 4.8745
28.4609 -6.5000 4.8995
28.5547 -7.2500 7.2625
28.6953 -7.5000 7.3475
28.8359 -8.0000 7.2475
28.8828 -7.7500 4.9455
29.0234 -8.2500 4.9785
29.0859 -9.0000 8.3215
29.1641 -8.5000 5.1395
29.2266 -9.2500 8.4235
29.4297 -9.5000 5.7855
29.5703 -10.0000 5.6375
29.6641 -9.5000 1.8415
29.8828 -9.5000 -1.8525
30.1172 -9.5000 -5.9975
30.3047 -9.7500 -8.1465
30.4609 -10.2500 -8.2565
30.6016 -10.5000 -8.3995
30.7422 -11.0000 -8.4745
30.8984 -11.5000 -8.4815
31.0391 -12.0000 -8.4215
31.1953 -12.2500 -8.5895
31.4453 -12.2500 -8.5005
31.2891 -11.7500 -8.5065
31.1484 -11.2500 -8.4765
31.0078 -11.0000 -8.4695
30.8516 -10.5000 -8.4315
30.7109 -10.0000 -8.4155
30.5703 -9.7500 -8.1015
30.3359 -9.7500 -4.1215
30.1016 -9.5000 -0.3975
29.8672 -9.5000 3.7685
29.6328 -9.5000 7.9055
29.4922 -9.2500 8.2535
29.3516 -8.7500 8.4175
29.2109 -8.5000 8.3085
29.2891 -8.0000 5.1425
29.1016 -7.7500 7.3365
28.9609 -7.5000 7.3775
28.8203 -7.0000 7.3145
28.7266 -6.2500 4.8915
28.5547 -6.2500 7.2945
28.4453 -5.5000 4.8675
28.3047 -5.0000 4.8865
28.1641 -4.7500 4.8935
28.0234 -4.2500 4.8775
27.8984 -3.7500 4.8705
27.7578 -3.5000 4.8705
27.6172 -3.0000 4.8545
27.4766 -2.5000 4.8505
27.3359 -2.2500 4.8975
27.1953 -1.7500 4.8775
27.0547 -1.2500 4.8795
26.9141 -1.0000 4.8455
26.7734 -0.5000 4.8485
26.6328 0.0000 4.8375
26.4922 0.2500 4.8495
26.3516 0.7500 4.8545
26.2109 1.2500 5.0825
26.0859 1.7500 3.9975
25.9453 2.2500 3.9515
26.1641 2.5000 3.9715
26.3047 2.0000 3.9955
26.4141 1.5000 5.5855
26.5703 1.0000 4.8735
26.7109 0.7500 4.8545
26.8516 0.2500 4.8725
26.9922 -0.2500 4.8755
27.1328 -0.5000 4.8615
27.2734 -1.0000 4.8215
27.4141 -1.5000 4.8505
27.5547 -2.0000 4.8785
27.7109 -2.2500 4.8685
27.8516 -2.7500 4.8795
27.9922 -3.2500 4.8565
28.1328 -3.5000 4.8705
28.2734 -4.0000 4.8705
28.4141 -4.5000 4.8875
28.5078 -5.0000 7.2725
28.5547 -4.7500 4.8755
28.6484 -5.5000 7.3315
28.7891 -6.0000 7.3325
28.9766 -6.0000 4.8545
29.1172 -6.5000 4.9865
29.2109 -7.2500 7.4525
29.3359 -7.7500 8.3075
29.4609 -8.0000 8.3335
29.6016 -8.5000 8.0765
29.7422 -9.0000 8.1085
29.8828 -9.2500 8.3775
30.0703 -9.5000 6.2955
30.3047 -9.5000 1.9095
30.5391 -9.5000 -1.7045
30.7734 -9.5000 -5.7635
30.9766 -9.7500 -8.4305
31.1172 -10.2500 -8.4395
31.2734 -10.5000 -8.4705
31.4141 -11.0000 -8.4405
31.4922 -10.7500 -8.4315
31.3516 -10.2500 -8.4155
31.2109 -9.7500 -8.4215
30.9922 -9.7500 -5.6095
30.7734 -9.7500 -1.6455
30.5391 -9.7500 2.5085
30.3047 -9.5000 6.5075
30.1328 -9.5000 8.3925
29.9922 -9.0000 8.0715
29.8516 -8.5000 8.0775
29.7109 -8.0000 8.0805
29.5703 -7.7500 8.2055
29.4297 -7.2500 8.3935
29.3047 -7.0000 8.1815
29.3516 -6.5000 5.2355
29.1641 -6.5000 7.3555
29.2109 -6.0000 4.9925
29.0234 -6.0000 7.3805
28.8828 -5.5000 7.3715
28.7422 -5.2500 7.3555
28.6016 -4.7500 7.2605
28.5234 -4.0000 4.8515
28.3828 -3.5000 4.8685
28.2422 -3.2500 4.8615
28.1016 -2.7500 4.8485
27.9609 -2.2500 4.8475
27.8047 -2.0000 4.8595
27.6641 -1.5000 4.8465
27.5234 -1.0000 4.8495
27.3828 -0.7500 4.8305
27.2422 -0.2500 4.8645
27.1016 0.2500 4.8315
26.9609 0.5000 4.8585
26.8359 1.0000 4.8805
26.6797 1.2500 5.6185
26.5547 2.0000 3.9625
26.4141 2.5000 3.9615
26.4609 2.2500 3.9105
26.6172 2.0000 3.9635
26.7266 1.2500 5.5685
26.8828 1.0000 4.8065
27.0234 0.5000 4.8435
27.1641 0.2500 4.8465
27.3047 -0.2500 4.8355
27.4453 -0.7500 4.8465
27.5859 -1.0000 4.8875
27.7266 -1.5000 4.8775
27.8672 -2.0000 4.8505
28.0234 -2.2500 4.8655
28.1641 -2.7500 4.8495
28.3047 -3.2500 4.8625
28.4453 -3.5000 4.8515
28.5859 -4.0000 4.8835
28.6797 -4.7500 7.3455
28.8203 -5.2500 7.3635
28.9609 -5.5000 7.3945
29.1016 -6.0000 7.4185
29.2266 -6.5000 7.7535
29.2734 -6.2500 5.0975
29.3516 -7.0000 8.3415
29.4922 -7.2500 8.3145
29.6328 -7.7500 8.1065
29.7734 -8.2500 8.1025
29.9141 -8.5000 8.0775
30.0547 -9.0000 8.0645
30.1953 -9.5000 8.3355
30.3828 -9.5000 6.1795
30.6172 -9.5000 1.7925
30.8359 -9.7500 -1.8465
31.0703 -9.7500 -6.0115
31.2734 -9.7500 -8.3865
31.4141 -10.2500 -8.4155
31.4922 -11.7500 4.6895
31.6484 -10.0000 -8.4275
31.4609 -9.7500 -6.3315
31.2109 -9.7500 -2.1505
30.9922 -9.7500 1.6555
30.7734 -9.7500 5.7535
30.5703 -9.5000 8.4235
30.4453 -9.0000 8.0385
30.3047 -8.7500 8.0935
30.1641 -8.2500 8.0595
30.0234 -7.7500 8.0705
29.8828 -7.5000 8.0745
29.7422 -7.0000 8.0445
29.6016 -6.5000 8.3325
29.4609 -6.2500 8.2485
29.3359 -5.7500 7.4625
29.1953 -5.2500 7.4095
29.0547 -4.7500 7.3715
28.9609 -4.2500 4.8625
28.8203 -3.7500 4.8775
28.6797 -3.2500 4.8565
28.5391 -2.7500 4.8575
28.3984 -2.5000 4.8435
28.2578 -2.0000 4.8685
28.1172 -1.5000 4.8485
27.9766 -1.2500 4.8365
27.8359 -0.7500 4.8545
27.6953 -0.2500 4.8355
27.5547 0.0000 4.8325
27.4141 0.5000 4.8815
27.2734 1.0000 4.8125
27.1328 1.2500 5.5555
27.0078 1.7500 3.9335
26.8672 2.2500 3.9375
27.1172 2.5000 3.9685
27.2578 2.0000 3.9945
27.3828 1.2500 5.6205
27.5234 1.0000 4.9245
27.6797 0.5000 4.8375
27.8203 0.2500 4.8475
27.9609 -0.2500 4.8585
28.1016 -0.7500 4.8545
28.2422 -1.0000 4.8635
28.3828 -1.5000 4.8605
28.5234 -2.0000 4.8605
28.6641 -2.2500 4.8315
28.7734 -3.0000 7.2685
28.9453 -3.2500 4.8715
29.0859 -3.5000 4.8655
29.2422 -4.0000 4.8025
29.3359 -4.7500 7.4385
29.4609 -5.2500 7.7765
29.6016 -5.7500 8.2905
29.7422 -6.0000 8.1215
29.8828 -6.5000 8.1065
30.0234 -6.7500 8.1385
30.1641 -7.2500 8.0845
30.3047 -7.7500 8.0775
30.4453 -8.0000 8.0785
30.5859 -8.5000 8.0785
30.7266 -9.0000 8.0755
30.8516 -9.2500 8.3705
31.0391 -9.5000 6.5795
31.2578 -9.7500 2.8615
31.4922 -9.7500 -1.1125
31.7109 -9.7500 -5.1985
31.9453 -9.7500 -8.3985
32.0391 -9.7500 -6.4665
31.8047 -9.7500 -2.2315
31.5859 -9.7500 1.5145
31.3516 -9.7500 5.4415
31.1484 -9.5000 8.4105
31.0234 -9.2500 8.0695
30.8828 -8.7500 8.0655
30.7422 -8.2500 8.0535
30.6016 -8.0000 8.0725
30.4609 -7.5000 8.0765
30.3203 -7.0000 8.0735
30.1797 -6.7500 8.0705
30.0391 -6.2500 8.0835
29.8984 -5.7500 8.0665
29.7422 -5.5000 8.2165
29.6016 -5.0000 8.3505
29.4609 -4.5000 8.2605
29.5234 -4.2500 5.1195
29.3828 -3.7500 4.9455
29.2422 -3.2500 4.7995
29.0703 -3.2500 7.2545
28.9297 -2.7500 7.2405
28.7891 -2.2500 7.0145
28.8203 -2.0000 5.0125
28.6953 -1.7500 4.8415
28.5391 -1.2500 4.8515
28.3984 -0.7500 4.8475
28.2578 -0.5000 4.8315
28.1172 0.0000 4.8255
27.9766 0.5000 4.8745
27.8359 0.7500 4.7855
27.6953 1.2500 5.5395
27.5547 1.7500 3.9645
27.4141 2.2500 3.9335
27.4453 2.2500 4.0265
27.5859 2.0000 3.9725
27.7266 1.5000 4.0975
27.8516 1.0000 4.9615
27.9922 0.5000 4.8675
28.1328 0.2500 4.8405
28.2891 -0.2500 4.8505
28.4297 -0.7500 4.8325
28.5703 -1.0000 4.8565
28.7109 -1.5000 4.8205
28.8203 -2.2500 7.2185
28.9609 -2.7500 7.3215
29.1016 -3.0000 7.2895
29.2734 -3.2500 4.8185
29.4141 -3.7500 5.1395
29.4922 -4.5000 8.3025
29.5547 -4.0000 5.2565
29.6328 -4.7500 8.3255
29.7891 -5.2500 8.1325
29.9297 -5.7500 8.0945
30.0703 -6.0000 8.0735
30.2109 -6.5000 8.0575
30.3516 -7.0000 8.0995
30.4922 -7.2500 8.0645
30.6328 -7.7500 8.0585
30.7734 -8.2500 8.0695
30.9141 -8.5000 8.0735
31.0547 -9.0000 8.0355
31.1953 -9.5000 8.2295
31.3516 -9.7500 6.7265
31.5859 -9.7500 2.9935
31.8047 -9.7500 -1.1105
32.0391 -9.7500 -5.0675
32.2422 -9.7500 -8.3865
32.5547 -9.7500 -8.3585
32.3359 -9.7500 -5.0095
32.1016 -9.7500 -0.9305
31.8672 -9.7500 3.1045
31.6484 -9.7500 6.9965
31.4922 -9.5000 8.2505
31.3516 -9.0000 8.0325
31.2109 -8.5000 8.0795
31.0703 -8.2500 8.0705
30.9297 -7.7500 8.0825
30.7891 -7.2500 8.0715
30.6484 -7.0000 8.0765
30.5078 -6.5000 8.0665
30.3672 -6.0000 8.0795
30.2422 -5.7500 8.0635
30.0859 -5.2500 8.1145
29.9453 -4.7500 8.0865
29.8047 -4.5000 8.3025
29.6641 -4.0000 8.3325
29.5391 -3.5000 7.9305
29.5859 -3.2500 5.1025
29.4141 -3.0000 7.3195
29.2734 -2.7500 7.2765
29.1328 -2.2500 7.2705
28.9922 -1.7500 7.2355
28.8828 -1.2500 4.8575
28.7422 -0.7500 4.8615
28.6016 -0.2500 4.8505
28.4609 0.0000 4.8765
28.3203 0.5000 4.8665
28.1797 1.0000 4.9035
28.0391 1.5000 4.2305
27.8984 2.0000 3.9865
27.7578 2.2500 3.8445
28.1484 2.2500 3.9075
28.2891 2.0000 3.9825
28.4141 1.2500 5.6245
28.5547 1.0000 4.8985
28.6953 0.5000 4.8615
28.8516 0.0000 4.8475
28.9922 -0.2500 4.8705
29.1328 -0.7500 4.8665
29.2734 -1.2500 4.8705
29.3828 -1.7500 7.3295
29.5234 -2.2500 7.3495
29.6484 -2.7500 8.1395
29.7891 -3.2500 8.3315
29.9453 -3.7500 8.0925
30.0859 -4.0000 8.0595
30.2109 -4.5000 8.0595
30.3516 -4.7500 8.0745
30.4922 -5.2500 8.0905
30.6328 -5.7500 8.0545
30.7734 -6.0000 8.0565
30.9141 -6.5000 8.0585
31.0703 -7.0000 8.0905
31.2109 -7.2500 8.0565
31.3359 -7.7500 8.3745
31.4922 -8.2500 8.0605
31.6328 -8.5000 8.0495
31.7734 -9.0000 8.0795
31.9141 -9.5000 8.2925
32.0859 -9.7500 6.6235
32.3047 -9.7500 2.7015
32.5234 -9.7500 -1.1005
32.7578 -9.7500 -5.0975
32.9766 -9.7500 -8.3745
33.1953 -10.0000 -8.2965
32.9609 -10.0000 -4.0105
33.0547 -9.5000 -7.9905
32.7422 -9.7500 -0.6375
32.5234 -9.7500 3.1805
32.3047 -9.7500 7.2765
32.1328 -9.5000 8.1135
32.0078 -9.0000 8.0465
31.8516 -8.5000 8.0475
31.7109 -8.2500 8.0685
31.5859 -7.7500 8.1265
31.4453 -7.5000 8.0545
31.3047 -7.0000 8.0585
31.1641 -6.5000 8.0865
31.0234 -6.2500 8.0545
30.8828 -5.7500 8.0525
30.7422 -5.2500 8.0515
30.6016 -5.0000 8.0805
30.4609 -4.5000 8.0385
30.3203 -4.0000 8.0655
30.1797 -3.7500 8.0665
30.0234 -3.2500 8.1585
29.8828 -3.0000 8.7085
29.7422 -2.5000 8.2365
29.6172 -2.0000 7.3535
29.5234 -1.2500 4.8345
29.3828 -0.7500 4.7935
29.2266 -0.2500 4.8695
29.0547 -0.2500 7.3425
28.9141 0.2500 7.2355
28.9453 0.5000 4.8655
28.8047 1.0000 5.0115
28.6641 1.5000 4.1695
28.5234 1.7500 3.9725
28.4141 2.2500 4.0085
28.5547 1.7500 4.0095
28.6953 1.2500 5.5995
28.8359 0.7500 4.8525
28.9453 0.2500 7.0975
28.9766 0.5000 5.0185
29.0859 -0.2500 7.3615
29.2578 -0.5000 4.8515
29.4141 -0.7500 4.8355
29.5547 -1.2500 4.9435
29.6484 -2.0000 7.4475
29.7734 -2.5000 8.3525
29.9141 -3.0000 8.5465
30.0703 -3.2500 8.0795
30.2109 -3.7500 8.0705
30.3516 -4.0000 8.0555
30.4922 -4.5000 8.0475
30.6328 -5.0000 8.0775
30.7734 -5.2500 8.0605
30.9141 -5.7500 8.0425
31.0547 -6.2500 8.0735
31.1953 -6.5000 8.0675
31.3359 -7.0000 8.0845
31.4766 -7.5000 8.1025
31.6172 -7.7500 8.1055
31.7578 -8.2500 8.0875
31.8984 -8.7500 8.0585
32.0391 -9.0000 8.0655
32.1797 -9.5000 8.3185
32.3516 -9.7500 6.5485
32.5859 -9.7500 2.5215
32.8047 -9.7500 -1.2595
32.8359 -9.5000 -3.4405
33.0859 -9.5000 -8.0365
33.2266 -10.0000 -8.4265
33.6484 -10.0000 -8.4615
33.4922 -9.7500 -7.9705
33.2578 -9.7500 -3.5875
33.0234 -9.7500 0.5585
32.8047 -9.7500 5.2015
32.5859 -9.7500 8.3935
32.4609 -9.2500 8.0505
32.3203 -8.7500 8.0605
32.1797 -8.5000 8.0565
32.0391 -8.0000 8.0675
31.8984 -7.5000 8.0715
31.7578 -7.2500 8.0685
31.6172 -6.7500 8.1115
31.4766 -6.2500 8.0845
31.3359 -6.0000 8.0475
31.1953 -5.5000 8.0535
31.0547 -5.0000 8.0185
30.9141 -4.7500 8.1045
30.7734 -4.2500 8.0675
30.6328 -4.0000 8.0755
30.4922 -3.5000 8.0765
30.3516 -3.0000 8.1215
30.2109 -2.7500 8.1835
30.0703 -2.2500 8.1205
29.9297 -1.7500 8.3535
29.7891 -1.5000 8.3025
29.8359 -1.0000 5.1505
29.6953 -0.5000 4.9685
29.5234 -0.5000 7.3055
29.5547 -0.2500 4.8465
29.3828 0.0000 7.3685
29.2422 0.2500 7.3585
29.1172 1.0000 5.7275
28.9922 1.5000 3.9815
28.8516 2.0000 3.9735
29.1328 2.2500 3.9585
29.2266 3.2500 -4.6425
29.2734 1.7500 3.9645
29.3984 1.0000 5.6785
29.5234 0.5000 7.4035
29.6641 0.0000 7.4285
29.8047 -0.5000 7.6715
29.9297 -1.0000 8.3665
30.0859 -1.2500 8.1625
30.2109 -1.7500 8.0905
30.3516 -2.0000 8.0805
30.5078 -2.5000 8.0785
30.6484 -3.0000 8.0545
30.7891 -3.2500 8.0655
30.9297 -3.7500 8.0745
31.0859 -4.2500 8.0515
31.2109 -4.5000 8.0735
31.3516 -5.0000 8.0665
31.4922 -5.5000 8.0655
31.6328 -5.7500 8.0835
31.7734 -6.2500 8.1345
31.9141 -6.7500 8.1315
32.0703 -7.0000 8.1295
32.2109 -7.5000 8.0855
32.3516 -8.0000 8.0635
32.4922 -8.2500 8.0695
32.6328 -8.7500 8.0735
32.7734 -9.2500 8.0755
32.9141 -9.5000 8.3165
33.1172 -9.7500 4.8445
33.3516 -9.5000 0.5615
33.5859 -9.7500 -3.5915
33.8203 -9.5000 -7.9445
33.9766 -10.0000 -8.4055
34.2578 -10.0000 -8.4345
34.1016 -9.7500 -7.9685
33.8672 -9.7500 -3.5755
33.6328 -9.7500 0.5835
33.4141 -9.7500 4.8435
33.1953 -9.7500 8.3825
33.0547 -9.2500 8.0555
32.9141 -8.7500 8.0655
32.7734 -8.5000 8.1055
32.6328 -8.0000 8.1645
32.4922 -7.5000 8.0765
32.3516 -7.2500 8.0985
32.2109 -6.7500 8.2425
32.0859 -6.2500 8.1295
31.9453 -6.0000 8.0755
31.6484 -5.0000 8.0585
31.5078 -4.7500 8.0805
31.3672 -4.2500 8.0805
31.2266 -3.7500 8.0665
31.0859 -3.5000 8.0445
30.9453 -3.0000 8.3755
30.8047 -2.5000 8.0405
30.6641 -2.2500 8.0645
30.5234 -1.7500 8.0595
30.3828 -1.2500 8.0555
30.2422 -1.0000 8.0535
30.0859 -0.5000 8.3105
29.9453 0.0000 8.2555
29.8203 0.5000 7.4475
29.6953 1.0000 5.5885
29.5859 1.7500 4.1375
29.4453 2.0000 3.9435
29.5234 3.2500 -4.5655
29.5703 1.7500 4.0915
29.6953 1.2500 5.1105
29.8047 0.5000 7.4995
29.9453 0.0000 8.2745
30.0859 -0.5000 8.2775
30.2266 -0.7500 8.0635
30.3828 -1.2500 8.0745
30.5234 -1.5000 8.0495
30.6641 -2.0000 8.0535
30.8047 -2.5000 8.0485
30.9453 -3.0000 8.5875
31.0859 -3.2500 8.1145
31.2266 -3.7500 8.0765
31.3672 -4.0000 8.0535
31.5078 -4.5000 8.0605
31.6484 -5.0000 8.0605
31.9297 -5.7500 8.2435
32.0859 -6.2500 8.0715
32.2109 -6.5000 8.2145
32.3516 -7.0000 8.3065
32.4922 -7.5000 8.0385
32.6328 -8.0000 8.3595
32.7734 -8.2500 8.0695
32.9141 -8.7500 8.0635
33.0703 -9.0000 8.0555
33.1953 -9.5000 8.2245
33.3516 -10.0000 7.7225
33.4141 -9.5000 4.8485
33.5547 -10.0000 4.3045
33.6328 -9.5000 0.4415
33.7891 -10.0000 0.2205
33.8672 -9.5000 -3.6675
34.0234 -10.0000 -3.8585
34.1016 -9.5000 -7.8985
34.2422 -10.0000 -8.2415
34.3984 -10.2500 -8.6005
34.5234 -10.0000 -8.1635
34.3672 -9.5000 -7.9355
34.0547 -10.0000 0.2865
34.1328 -9.5000 -3.6165
33.8359 -10.0000 4.3155
33.9141 -9.5000 0.5145
33.6172 -10.0000 7.9325
33.6797 -9.5000 4.8545
33.4766 -9.5000 8.1715
33.3359 -9.0000 8.0545
33.1953 -8.7500 8.0775
33.0547 -8.2500 8.0685
32.9141 -8.0000 8.3955
32.7734 -7.5000 8.0395
32.6328 -7.0000 8.0915
32.4922 -6.7500 8.1885
32.3516 -6.2500 8.0555
32.2109 -5.7500 8.0765
32.0703 -5.5000 8.1055
31.9297 -5.0000 8.0525
31.7891 -4.5000 8.0255
