4.32030010 -5.75000000 4.94850016
4.78910017 -5.75000000 4.92049980
5.27339983 -5.75000000 4.94350004
5.74219990 -5.75000000 4.89050007
6.22660017 -5.75000000 4.92850018
6.69530010 -5.75000000 4.90350008
7.17969990 -5.75000000 4.94449997
7.64839983 -5.75000000 4.94950008
8.11719990 -5.75000000 4.94150019
8.58590031 -5.75000000 4.94750023
9.05469990 -5.75000000 4.92549992
9.53909969 -5.75000000 4.95450020
9.99219990 -5.75000000 4.92649984
10.46090031 -5.75000000 4.92250013
10.92969990 -5.75000000 4.91550016
11.41409969 -5.75000000 4.96950006
11.85159969 -5.75000000 4.90749979
12.32030010 -5.75000000 4.88450003
12.80469990 -5.75000000 4.95149994
13.27340031 -5.75000000 4.95650005
13.72659969 -5.75000000 4.95550013
14.19530010 -5.75000000 4.95149994
14.66409969 -5.75000000 4.96850014
15.13280010 -5.75000000 5.00449991
15.55469990 -5.75000000 4.90350008
16.02339935 -5.75000000 4.94049978
16.49220085 -5.75000000 4.96350002
16.96089935 -5.75000000 4.99450016
17.41410065 -5.75000000 4.94649982
17.86720085 -5.75000000 4.95749998
18.33589935 -5.75000000 4.95349979
18.78910065 -5.75000000 4.97949982
19.24220085 -5.75000000 4.92549992
19.69529915 -5.75000000 4.94350004
20.16410065 -5.75000000 4.97349977
20.60160065 -5.75000000 4.93349981
21.05470085 -5.75000000 4.97949982
21.52339935 -5.75000000 4.96449995
21.96089935 -5.50000000 4.94950008
22.42970085 -5.50000000 4.97949982
22.88279915 -5.50000000 4.94449997
23.33589935 -5.50000000 4.93050003
23.78910065 -5.50000000 4.95450020
24.24220085 -5.50000000 4.93450022
24.67970085 -5.50000000 4.90649986
25.13279915 -5.50000000 4.92649984
25.58589935 -5.50000000 4.91550016
26.05470085 -5.50000000 4.92449999
26.49220085 -5.50000000 4.93650007
26.94529915 -5.50000000 4.92749977
27.39839935 -5.50000000 4.92049980
27.85160065 -5.50000000 4.93349981
28.80470085 -5.25000000 7.33850002
29.46089935 -5.25000000 8.38749981
29.83589935 -5.25000000 8.02950001
30.30470085 -5.25000000 8.13749981
30.75779915 -5.25000000 8.13049984
31.21089935 -5.25000000 8.13949966
31.66410065 -5.25000000 8.11149979
32.10160065 -5.25000000 8.10649967
32.55469894 -5.25000000 8.09449959
33.00780106 -5.25000000 8.10550022
33.44530106 -5.25000000 8.08049965
33.89839935 -5.25000000 8.08450031
34.33589935 -5.25000000 8.07950020
34.78910065 -5.25000000 8.07950020
35.22660065 -5.25000000 8.02550030
35.74219894 -5.25000000 8.39249992
35.83589935 -5.25000000 6.50349998
36.08589935 -5.50000000 5.37949991
36.42969894 -5.50000000 4.82350016
36.89839935 -5.50000000 4.90150023
37.33589935 -5.50000000 4.84950018
37.78910065 -5.50000000 4.85750008
38.24219894 -5.50000000 4.85850000
38.69530106 -5.50000000 4.85249996
39.14839935 -5.50000000 4.87550020
39.58589935 -5.50000000 4.85349989
40.03910065 -5.50000000 4.86350012
40.49219894 -5.50000000 4.86850023
40.94530106 -5.50000000 4.87949991
41.39839935 -5.50000000 4.87550020
41.85160065 -5.50000000 4.87249994
42.30469894 -5.50000000 4.88450003
42.74219894 -5.50000000 4.86649990
43.19530106 -5.50000000 4.84950018
43.64839935 -5.50000000 4.87050009
44.10160065 -5.50000000 4.85449982
44.53910065 -5.25000000 4.83949995
44.99219894 -5.25000000 4.86850023
45.44530106 -5.25000000 4.86950016
45.88280106 -5.25000000 4.81349993
46.35160065 -5.25000000 4.87050009
46.80469894 -5.25000000 4.87949991
47.24219894 -5.25000000 4.85150003
47.69530106 -5.25000000 4.84649992
48.13280106 -5.25000000 4.84950018
48.58589935 -5.25000000 4.87449980
49.03910065 -5.25000000 4.89349985
49.50780106 -5.25000000 4.99849987
49.94530106 -5.25000000 4.93149996
50.39839935 -5.25000000 4.98750019
50.83589935 -5.25000000 4.91849995
51.28910065 -5.25000000 4.91450024
51.74219894 -5.25000000 4.96750021
52.19530106 -5.25000000 4.97149992
53.99219894 -5.25000000 5.05749989
60.58589935 -5.50000000 0.89649999
60.53910065 -5.75000000 -2.76749992
60.77339935 -6.00000000 -4.44449997
61.21089935 -6.00000000 -4.51650000
61.67969894 -6.00000000 -4.50050020
61.74219894 -6.25000000 -7.53249979
62.17969894 -6.25000000 -7.67649984
62.60160065 -6.25000000 -7.92250013
63.03910065 -6.25000000 -8.06849957
63.46089935 -6.25000000 -8.32950020
63.91410065 -6.25000000 -8.41650009
63.92969894 -6.75000000 -8.45849991
63.46089935 -6.75000000 -8.55949974
63.03910065 -6.75000000 -8.20950031
62.61719894 -6.75000000 -7.93249989
62.19530106 -6.75000000 -7.71649981
61.74219894 -6.75000000 -7.62150002
61.69530106 -6.50000000 -4.53249979
61.24219894 -6.50000000 -4.48350000
60.77339935 -6.50000000 -4.47550011
60.52339935 -6.25000000 -3.00550008
60.57030106 -6.00000000 0.79850000
59.35160065 -5.75000000 5.02750015
55.75780106 -5.75000000 5.04349995
54.41410065 -5.75000000 5.01849985
53.96089935 -5.75000000 5.02950001
53.50780106 -5.75000000 4.97949982
52.14839935 -5.75000000 4.95650005
51.69530106 -5.75000000 4.92049980
51.24219894 -5.75000000 4.90749979
50.80469894 -5.75000000 4.93149996
50.33589935 -5.75000000 4.89050007
49.88280106 -5.75000000 4.87150002
49.44530106 -5.75000000 4.89650011
48.99219894 -5.75000000 4.87050009
48.52339935 -5.75000000 4.86749983
48.08589935 -5.75000000 4.86749983
47.63280106 -5.75000000 4.86350012
47.17969894 -5.75000000 4.86850023
46.71089935 -6.00000000 4.84749985
46.27339935 -6.00000000 4.83949995
45.80469894 -6.00000000 4.81150007
45.36719894 -6.00000000 4.87249994
44.91410065 -6.00000000 4.83850002
44.46089935 -6.00000000 4.84450006
44.00780106 -6.00000000 4.83850002
43.57030106 -6.00000000 4.86450005
43.10160065 -6.00000000 4.85650015
42.66410065 -6.00000000 4.87650013
42.19530106 -6.00000000 4.86250019
41.74219894 -6.00000000 4.86649990
41.30469894 -6.00000000 4.85550022
40.85160065 -6.00000000 4.87449980
40.39839935 -6.00000000 4.88649988
39.94530106 -6.00000000 4.85449982
39.49219894 -6.00000000 4.86749983
39.02339935 -6.00000000 4.86149979
38.58589935 -6.00000000 4.87349987
38.11719894 -6.00000000 4.86850023
37.66410065 -6.00000000 4.86049986
37.21089935 -6.00000000 4.86850023
36.75780106 -6.00000000 4.86950016
36.27339935 -6.00000000 4.77549982
35.94530106 -6.00000000 5.41750002
36.02339935 -5.75000000 8.22850037
35.60160065 -5.75000000 8.41450024
35.08589935 -5.75000000 8.00349998
34.63280106 -5.75000000 8.01650047
34.17969894 -5.75000000 7.99849987
33.71089935 -5.75000000 7.97949982
33.28910065 -5.75000000 8.07649994
32.83589935 -5.75000000 8.09650040
32.38280106 -5.75000000 8.10849953
31.92970085 -5.75000000 8.11450005
31.46089935 -5.75000000 8.09150028
31.02339935 -5.75000000 8.10249996
30.58589935 -5.75000000 8.14150047
30.11720085 -5.75000000 8.13150024
29.67970085 -5.75000000 8.22449970
29.07029915 -6.00000000 7.42549992
28.58589935 -6.00000000 7.27349997
27.63279915 -6.25000000 4.92649984
27.17970085 -6.25000000 4.92250013
26.71089935 -6.25000000 4.92850018
26.25779915 -6.25000000 4.91450024
25.80470085 -6.25000000 4.94150019
25.33589935 -6.25000000 4.93450022
24.88279915 -6.25000000 4.92950010
24.41410065 -6.25000000 4.92749977
23.96089935 -6.25000000 4.90749979
23.49220085 -6.25000000 4.94350004
23.03910065 -6.25000000 4.94250011
22.58589935 -6.25000000 4.94250011
22.11720085 -6.25000000 4.94150019
21.66410065 -6.25000000 4.94250011
21.19529915 -6.25000000 4.93849993
20.74220085 -6.25000000 4.94049978
20.28910065 -6.25000000 4.97949982
19.82029915 -6.25000000 4.97249985
19.35160065 -6.25000000 4.99350023
18.89839935 -6.25000000 4.98250008
18.42970085 -6.25000000 4.96549988
17.96089935 -6.25000000 4.95949984
17.50779915 -6.25000000 4.97450018
17.03910065 -6.25000000 4.95550013
16.58589935 -6.25000000 4.92749977
16.10160065 -6.25000000 4.91249990
15.66409969 -6.25000000 4.98449993
15.19530010 -6.25000000 4.96049976
14.72659969 -6.25000000 4.96850014
14.24219990 -6.25000000 4.91149998
13.80469990 -6.25000000 4.94449997
13.33590031 -6.25000000 4.96150017
12.86719990 -6.50000000 4.95450020
12.39840031 -6.50000000 4.93750000
11.94530010 -6.50000000 4.93849993
11.46090031 -6.50000000 4.95249987
11.00780010 -6.50000000 4.94950008
10.52340031 -6.50000000 4.92549992
10.07030010 -6.50000000 4.93149996
9.60159969 -6.50000000 4.94850016
9.13280010 -6.50000000 4.94250011
8.66409969 -6.50000000 4.93249989
8.19530010 -6.50000000 4.90549994
7.74219990 -6.50000000 4.96350002
7.27339983 -6.50000000 4.92749977
6.80469990 -6.50000000 4.93650007
6.32030010 -6.50000000 4.88450003
5.85160017 -6.50000000 4.89650011
5.39839983 -6.50000000 4.93550014
4.91410017 -6.50000000 4.89449978
4.44530010 -6.50000000 4.89050007
3.99219990 -6.50000000 4.93050003
3.50780010 -6.50000000 4.86549997
3.03909993 -6.50000000 4.89249992
2.55469990 -6.50000000 4.83349991
2.08590007 -6.50000000 4.83150005
1.63279998 -6.50000000 4.90049982
1.16410005 -6.50000000 4.88749981
0.77340001 -6.50000000 5.19049978
0.35159999 -6.50000000 5.37150002
0.27340001 -6.75000000 5.53149986
0.67970002 -6.75000000 5.24249983
1.05470002 -6.75000000 4.86549997
1.57029998 -6.75000000 4.93249989
2.03909993 -6.75000000 4.88850021
2.52340007 -6.75000000 4.92049980
2.99219990 -6.75000000 4.86450005
3.46090007 -6.75000000 4.84950018
3.96090007 -6.75000000 4.91149998
4.44530010 -6.75000000 4.88549995
4.91410017 -6.75000000 4.88649988
5.39839983 -6.75000000 4.88649988
5.88280010 -6.75000000 4.94049978
6.35160017 -6.75000000 4.92950010
6.83589983 -6.75000000 4.93349981
7.32030010 -6.50000000 4.94449997
7.78910017 -6.50000000 4.94250011
8.27340031 -6.50000000 4.96049976
8.74219990 -6.50000000 4.97749996
9.19530010 -6.50000000 4.95550013
9.66409969 -6.50000000 4.92749977
10.13280010 -6.50000000 4.90950012
10.60159969 -6.50000000 4.93050003
11.08590031 -6.50000000 4.96950006
11.53909969 -6.50000000 4.94250011
12.00780010 -6.50000000 4.96750021
12.46090031 -6.50000000 4.92150021
12.94530010 -6.50000000 4.95450020
13.39840031 -6.50000000 4.94549990
13.86719990 -6.50000000 4.98050022
14.32030010 -6.50000000 4.95050001
14.78909969 -6.50000000 4.97949982
15.24219990 -6.50000000 4.96549988
15.71090031 -6.50000000 4.97349977
16.16410065 -6.50000000 4.97450018
16.63279915 -6.50000000 4.97650003
17.08589935 -6.50000000 4.92749977
17.53910065 -6.50000000 4.97349977
17.99220085 -6.50000000 4.97049999
18.46089935 -6.50000000 4.96649981
18.91410065 -6.50000000 4.97849989
19.35160065 -6.50000000 4.93949986
19.82029915 -6.50000000 4.95249987
20.27339935 -6.50000000 4.93849993
20.72660065 -6.50000000 4.93249989
21.17970085 -6.50000000 4.94950008
21.63279915 -6.50000000 4.94649982
22.10160065 -6.50000000 4.97949982
22.55470085 -6.50000000 4.95849991
22.99220085 -6.50000000 4.94649982
23.46089935 -6.50000000 4.96049976
23.91410065 -6.50000000 4.93349981
24.35160065 -6.50000000 4.95050001
24.82029915 -6.50000000 4.94549990
25.27339935 -6.50000000 4.97049999
25.71089935 -6.50000000 4.95349979
26.16410065 -6.50000000 4.93550014
26.61720085 -6.50000000 4.93249989
27.08589935 -6.25000000 4.95749998
27.52339935 -6.25000000 4.92649984
28.46089935 -6.25000000 7.30649996
28.94529915 -6.25000000 7.42850018
29.58589935 -6.00000000 8.38150024
29.97660065 -6.00000000 8.13049984
30.42970085 -6.00000000 8.12450027
30.88279915 -6.00000000 8.13249969
31.33589935 -6.00000000 8.11950016
31.77339935 -6.00000000 8.12250042
32.21089935 -6.00000000 8.10249996
32.66410065 -6.00000000 8.12049961
33.11719894 -6.00000000 8.10249996
33.55469894 -6.00000000 8.02750015
34.02339935 -6.00000000 8.11750031
34.46089935 -6.00000000 8.10750008
34.91410065 -6.00000000 8.09049988
35.39839935 -6.00000000 8.30150032
35.80469894 -6.00000000 8.12650013
35.77339935 -6.25000000 5.57749987
36.10160065 -6.25000000 4.90850019
36.55469894 -6.25000000 4.86350012
36.99219894 -6.25000000 4.84749985
37.44530106 -6.25000000 4.87050009
37.89839935 -6.25000000 4.87750006
38.35160065 -6.25000000 4.86350012
38.80469894 -6.25000000 4.86450005
39.25780106 -6.25000000 4.85150003
39.71089935 -6.25000000 4.84649992
40.16410065 -6.25000000 4.87150002
40.60160065 -6.25000000 4.85949993
41.05469894 -6.25000000 4.80649996
41.50780106 -6.25000000 4.86649990
41.96089935 -6.25000000 4.87150002
42.41410065 -6.25000000 4.87349987
42.85160065 -6.25000000 4.85850000
43.30469894 -6.25000000 4.84250021
43.74219894 -6.25000000 4.84549999
44.21089935 -6.25000000 4.86250019
44.64839935 -6.25000000 4.85449982
45.10160065 -6.25000000 4.86850023
45.55469894 -6.25000000 4.89849997
46.00780106 -6.25000000 4.89150000
46.44530106 -6.25000000 4.85550022
46.91410065 -6.25000000 4.85750008
47.35160065 -6.25000000 4.89550018
47.80469894 -6.00000000 4.92049980
48.25780106 -6.00000000 4.88649988
48.69530106 -6.00000000 4.88250017
49.14839935 -6.00000000 4.89349985
49.60160065 -6.00000000 4.91249990
50.05469894 -6.00000000 4.90049982
50.49219894 -6.00000000 4.91550016
50.94530106 -6.00000000 4.87650013
51.38280106 -6.00000000 4.92449999
51.83589935 -6.00000000 4.93050003
52.28910065 -6.00000000 4.92950010
52.74219894 -6.00000000 5.00549984
53.19530106 -6.00000000 5.04250002
53.63280106 -6.00000000 4.99149990
55.88280106 -6.00000000 5.03049994
60.53910065 -6.00000000 3.22350001
60.49219894 -6.50000000 -0.43149999
60.44530106 -6.75000000 -4.18149996
60.85160065 -6.75000000 -4.49949980
61.32030106 -6.75000000 -4.46950006
61.77339935 -6.75000000 -4.47650003
61.83589935 -7.00000000 -7.58050013
62.25780106 -7.00000000 -7.80550003
62.69530106 -7.00000000 -7.96250010
63.10160065 -7.00000000 -8.35249996
64.00779724 -7.00000000 -8.41149998
63.88280106 -7.75000000 -8.46049976
63.42969894 -7.75000000 -8.39649963
62.99219894 -7.75000000 -8.15950012
62.55469894 -7.75000000 -8.03450012
62.13280106 -7.75000000 -7.78749990
61.66410065 -7.75000000 -7.82950020
61.61719894 -7.50000000 -4.62550020
61.19530106 -7.50000000 -4.43349981
60.71089935 -7.50000000 -4.54449987
60.47660065 -7.50000000 -2.97049999
60.52339935 -7.00000000 0.79650003
60.60160065 -6.75000000 4.77250004
56.60160065 -6.75000000 5.05450010
55.69530106 -6.75000000 4.88850021
54.78910065 -6.75000000 4.85750008
54.35160065 -6.75000000 4.88850021
53.89839935 -6.75000000 4.88250017
53.44530106 -6.75000000 4.91650009
53.00780106 -7.00000000 4.93849993
52.55469894 -7.00000000 4.90250015
52.10160065 -7.00000000 4.92850018
51.64839935 -7.00000000 4.89750004
51.19530106 -7.00000000 4.86250019
50.74219894 -7.00000000 4.85650015
50.28910065 -7.00000000 4.85449982
49.83589935 -7.00000000 4.84250021
49.38280106 -7.00000000 4.85050011
48.94530106 -7.00000000 4.87150002
48.49219894 -7.00000000 4.85449982
48.03910065 -7.00000000 4.83449984
47.58589935 -7.00000000 4.83150005
47.13280106 -7.00000000 4.85249996
46.69530106 -7.00000000 4.86049986
46.24219894 -7.00000000 4.84450006
45.78910065 -7.00000000 4.84450006
45.33589935 -7.00000000 4.85150003
44.88280106 -7.00000000 4.84950018
44.42969894 -7.00000000 4.85750008
43.97660065 -7.00000000 4.84649992
43.52339935 -7.00000000 4.86250019
43.08589935 -7.00000000 4.86250019
42.63280106 -7.00000000 4.84950018
42.17969894 -7.00000000 4.87249994
41.71089935 -7.00000000 4.84849977
41.27339935 -7.00000000 4.86749983
40.82030106 -7.00000000 4.86450005
40.36719894 -7.00000000 4.88649988
39.91410065 -7.00000000 4.85949993
39.46089935 -7.00000000 4.87550020
38.99219894 -7.00000000 4.85650015
38.58589935 -7.00000000 5.01949978
38.10160065 -7.25000000 4.84549999
37.63280106 -7.25000000 4.82749987
37.19530106 -7.25000000 4.86549997
36.72660065 -7.25000000 4.83949995
36.27339935 -7.25000000 4.87750006
35.92969894 -7.00000000 5.40749979
35.74219894 -7.00000000 6.80049992
35.58589935 -6.75000000 8.39649963
35.07030106 -7.00000000 8.03950024
34.61719894 -7.00000000 8.06649971
34.16410065 -7.00000000 8.04850006
33.71089935 -7.00000000 8.06149960
33.27339935 -7.00000000 8.08850002
32.88280106 -7.00000000 8.43949986
32.39839935 -7.00000000 8.25450039
31.91410065 -7.00000000 8.13949966
31.46089935 -7.00000000 8.08650017
31.00779915 -7.00000000 8.07849979
30.55470085 -7.00000000 8.09350014
30.10160065 -7.00000000 8.12950039
29.64839935 -7.00000000 8.14750004
29.21089935 -7.00000000 8.26850033
28.52339935 -7.25000000 4.86950016
28.07029915 -7.25000000 4.85949993
27.63279915 -7.25000000 4.93249989
27.16410065 -7.25000000 4.95050001
26.71089935 -7.25000000 4.93149996
26.25779915 -7.25000000 4.94950008
25.80470085 -7.25000000 4.94649982
25.33589935 -7.25000000 4.92950010
24.86720085 -7.25000000 4.91949987
24.41410065 -7.25000000 4.93249989
23.96089935 -7.25000000 4.94549990
23.49220085 -7.25000000 4.92850018
23.03910065 -7.25000000 4.94750023
22.57029915 -7.25000000 4.93149996
22.10160065 -7.50000000 4.92449999
21.64839935 -7.50000000 4.93349981
21.19529915 -7.50000000 4.93949986
20.74220085 -7.50000000 4.96250010
20.25779915 -7.50000000 4.88250017
19.80470085 -7.50000000 4.95349979
19.35160065 -7.50000000 4.95149994
18.88279915 -7.50000000 4.95550013
18.42970085 -7.50000000 4.94250011
17.96089935 -7.50000000 4.94750023
17.49220085 -7.50000000 4.94750023
17.05470085 -7.50000000 4.96750021
16.58589935 -7.50000000 4.93750000
16.10160065 -7.50000000 4.88149977
15.63280010 -7.50000000 4.87349987
15.16409969 -7.50000000 4.88850021
14.71090031 -7.50000000 4.89650011
14.25780010 -7.50000000 4.93849993
13.78909969 -7.50000000 4.91149998
13.33590031 -7.50000000 4.93450022
12.85159969 -7.50000000 4.93450022
12.38280010 -7.50000000 4.89349985
11.94530010 -7.50000000 4.92850018
11.46090031 -7.50000000 4.92250013
10.99219990 -7.50000000 4.89949989
10.53909969 -7.50000000 4.93849993
10.07030010 -7.50000000 4.92950010
9.60159969 -7.50000000 4.95949984
9.13280010 -7.50000000 4.92749977
8.66409969 -7.50000000 4.92649984
8.19530010 -7.50000000 4.91949987
7.72660017 -7.50000000 4.89949989
7.27339983 -7.50000000 4.91450024
6.80469990 -7.75000000 4.90049982
6.33589983 -7.75000000 4.91450024
5.86719990 -7.75000000 4.89449978
5.39839983 -7.75000000 4.88450003
4.92969990 -7.75000000 4.89949989
4.46089983 -7.75000000 4.90649986
3.99219990 -7.75000000 4.89550018
3.52340007 -7.75000000 4.90049982
3.05469990 -7.75000000 4.89150000
2.58590007 -7.75000000 4.91550016
2.10159993 -7.75000000 4.89249992
1.64839995 -7.75000000 4.91550016
1.19529998 -7.75000000 4.92150021
0.74220002 -7.75000000 4.99350023
0.33590001 -7.75000000 5.25349998
0.21089999 -7.75000000 5.43349981
0.61720002 -7.75000000 5.14249992
1.05470002 -7.75000000 4.91249990
1.52339995 -7.75000000 4.92350006
2.02340007 -7.75000000 4.92749977
2.49219990 -7.75000000 4.91149998
2.97659993 -7.75000000 4.90950012
3.46090007 -7.75000000 4.89449978
3.94530010 -7.75000000 4.91650009
4.41410017 -7.75000000 4.90250015
4.91410017 -7.75000000 4.91750002
5.36719990 -7.75000000 4.85650015
5.85160017 -7.75000000 4.92150021
6.33589983 -7.75000000 4.93249989
6.82030010 -7.75000000 4.95050001
7.28910017 -7.75000000 4.91149998
7.77339983 -7.75000000 4.94449997
8.24219990 -7.75000000 4.92150021
8.71090031 -7.75000000 4.95650005
9.19530010 -7.75000000 4.96350002
9.64840031 -7.75000000 4.92749977
10.13280010 -7.75000000 4.94250011
10.58590031 -7.75000000 4.93750000
11.05469990 -7.75000000 4.92549992
11.52340031 -7.75000000 4.95749998
11.99219990 -7.75000000 4.93849993
12.44530010 -7.75000000 4.92049980
12.91409969 -7.75000000 4.94049978
13.38280010 -7.75000000 4.95249987
13.83590031 -7.50000000 4.92150021
14.30469990 -7.50000000 4.94950008
14.77340031 -7.50000000 4.94850016
15.22659969 -7.50000000 4.93450022
15.67969990 -7.50000000 4.89349985
16.13279915 -7.50000000 4.87249994
16.60160065 -7.50000000 4.85949993
17.07029915 -7.50000000 4.93450022
17.52339935 -7.50000000 4.90850019
17.99220085 -7.50000000 4.95949984
18.44529915 -7.50000000 4.92649984
18.91410065 -7.50000000 4.97450018
19.35160065 -7.50000000 4.94250011
19.83589935 -7.50000000 4.97749996
20.27339935 -7.50000000 4.89750004
20.72660065 -7.50000000 4.96049976
21.17970085 -7.50000000 4.93050003
21.63279915 -7.50000000 4.93750000
22.08589935 -7.50000000 4.93849993
22.55470085 -7.50000000 4.93550014
22.99220085 -7.50000000 4.93949986
23.46089935 -7.50000000 4.95550013
23.91410065 -7.50000000 4.92749977
24.35160065 -7.50000000 4.91550016
24.82029915 -7.50000000 4.95550013
25.27339935 -7.50000000 4.96649981
25.71089935 -7.50000000 4.94049978
26.16410065 -7.50000000 4.93750000
26.63279915 -7.50000000 4.93450022
27.08589935 -7.50000000 4.93149996
27.53910065 -7.50000000 4.94449997
28.46089935 -7.25000000 7.27050018
27.99220085 -7.50000000 4.99149990
28.92970085 -7.25000000 7.32649994
28.44529915 -7.50000000 4.94449997
29.57029915 -7.00000000 8.25549984
29.99220085 -7.00000000 8.13850021
30.44529915 -7.00000000 8.11050034
30.88279915 -7.00000000 8.08250046
31.33589935 -7.00000000 8.09049988
31.77339935 -7.00000000 8.08049965
32.27339935 -7.00000000 8.34650040
32.71089935 -7.00000000 8.28349972
33.13280106 -7.00000000 8.10849953
33.58589935 -7.00000000 8.10449982
34.02339935 -7.00000000 8.11550045
34.47660065 -7.00000000 8.09150028
34.91410065 -7.00000000 8.08150005
35.41410065 -7.00000000 8.29950047
35.69530106 -7.00000000 7.40549994
35.77339935 -7.25000000 5.42850018
36.14839935 -7.25000000 5.05249977
36.58589935 -7.25000000 4.90250015
37.00780106 -7.25000000 4.81150007
37.46089935 -7.25000000 4.77449989
37.91410065 -7.25000000 4.81150007
38.35160065 -7.25000000 4.76049995
38.82030106 -7.25000000 4.82149982
39.27339935 -7.25000000 4.82950020
39.72660065 -7.25000000 4.87349987
40.17969894 -7.25000000 4.83850002
40.63280106 -7.25000000 4.89349985
41.08589935 -7.25000000 4.88850021
41.52339935 -7.25000000 4.85349989
41.99219894 -7.25000000 4.88250017
42.42969894 -7.25000000 4.86950016
42.88280106 -7.25000000 4.86250019
43.33589935 -7.25000000 4.84549999
43.78910065 -7.25000000 4.86649990
44.24219894 -7.25000000 4.87949991
44.69530106 -7.25000000 4.86450005
45.13280106 -7.25000000 4.89349985
45.58589935 -7.25000000 4.86450005
46.02339935 -7.25000000 4.85750008
46.47660065 -7.25000000 4.86649990
46.92969894 -7.25000000 4.86049986
47.38280106 -7.25000000 4.85449982
47.83589935 -7.25000000 4.87150002
48.27339935 -7.25000000 4.85949993
48.72660065 -7.25000000 4.86250019
49.17969894 -7.00000000 4.84450006
49.63280106 -7.00000000 4.87050009
50.05469894 -7.00000000 4.78149986
50.52339935 -7.00000000 4.81549978
50.96089935 -7.00000000 4.86049986
51.41410065 -7.00000000 4.87650013
51.86719894 -7.00000000 4.86049986
52.33589935 -7.00000000 4.96049976
52.78910065 -7.00000000 5.06650019
53.21089935 -7.00000000 4.93149996
53.66410065 -7.00000000 4.93450022
54.10160065 -7.00000000 4.93450022
54.55469894 -7.00000000 4.92850018
55.02339935 -7.00000000 5.01849985
55.46089935 -7.00000000 4.96950006
60.46089935 -7.25000000 2.29850006
60.42969894 -7.50000000 -1.31949997
60.46089935 -7.75000000 -4.49949980
60.46089935 -8.00000000 -7.83750010
60.91410065 -8.00000000 -7.95650005
61.38280106 -8.00000000 -7.93650007
61.85160065 -8.00000000 -7.84649992
62.30469894 -8.00000000 -7.86950016
62.72660065 -8.00000000 -8.05550003
63.16410065 -8.00000000 -8.26850033
63.60160065 -8.00000000 -8.43850040
63.52339935 -8.50000000 -8.40450001
63.08589935 -8.50000000 -8.28149986
62.63280106 -8.50000000 -8.08549976
62.19530106 -8.50000000 -7.99049997
61.72660065 -8.50000000 -8.05749989
61.24219894 -8.50000000 -8.21150017
60.80469894 -8.50000000 -8.09249973
60.46089935 -8.50000000 -7.22650003
60.38280106 -8.25000000 -4.28249979
60.41410065 -8.00000000 -0.67150003
60.46089935 -7.50000000 3.00650001
56.24219894 -7.50000000 5.00649977
55.80469894 -7.50000000 5.04050016
55.33589935 -7.50000000 4.96449995
54.88280106 -7.50000000 4.97550011
53.52339935 -7.50000000 4.86950016
53.08589935 -7.50000000 4.98250008
52.63280106 -7.50000000 4.88749981
52.17969894 -7.50000000 4.89550018
51.72660065 -7.50000000 4.90850019
51.27339935 -7.50000000 4.85850000
50.83589935 -7.50000000 4.88549995
50.36719894 -7.50000000 4.83150005
49.91410065 -7.75000000 4.85449982
49.46089935 -7.75000000 4.87249994
49.02339935 -7.75000000 4.86649990
48.57030106 -7.75000000 4.86649990
48.11719894 -7.75000000 4.84950018
47.66410065 -7.75000000 4.86149979
47.21089935 -7.75000000 4.86649990
46.77339935 -7.75000000 4.86549997
46.30469894 -7.75000000 4.85750008
45.85160065 -7.75000000 4.86149979
45.41410065 -7.75000000 4.88649988
44.94530106 -7.75000000 4.84950018
44.49219894 -7.75000000 4.85050011
44.03910065 -7.75000000 4.77349997
43.58589935 -7.75000000 4.76749992
43.13280106 -7.75000000 4.81150007
42.69530106 -7.75000000 4.85050011
42.24219894 -7.75000000 4.89750004
41.80469894 -7.75000000 4.98150015
41.36719894 -7.75000000 5.03249979
40.94530106 -7.75000000 5.21750021
40.49219894 -7.75000000 5.21049976
40.05469894 -7.75000000 5.31850004
39.60160065 -7.75000000 5.25750017
39.16410065 -7.75000000 5.41050005
38.72660065 -7.75000000 5.46049976
38.28910065 -7.75000000 5.55550003
37.85160065 -7.75000000 5.60650015
37.38280106 -7.75000000 5.56750011
36.69530106 -8.00000000 4.28649998
36.44530106 -7.75000000 5.43750000
36.02339935 -7.75000000 5.52250004
35.63280106 -7.75000000 5.92850018
35.61719894 -7.50000000 8.24849987
35.11719894 -7.50000000 7.97749996
34.67969894 -7.50000000 8.06149960
34.22660065 -7.75000000 8.07050037
33.77339935 -7.75000000 8.07649994
33.33589935 -7.75000000 8.11750031
32.86719894 -7.75000000 8.07849979
32.42969894 -7.75000000 8.12749958
31.52339935 -7.75000000 8.12849998
31.05470085 -7.75000000 8.09850025
30.60160065 -7.75000000 8.09350014
30.16410065 -7.75000000 8.12749958
29.69529915 -7.75000000 8.12349987
29.30470085 -7.75000000 8.38350010
28.61720085 -7.75000000 7.29250002
27.67970085 -8.00000000 4.91849995
27.19529915 -8.00000000 4.83549976
26.75779915 -8.00000000 4.93149996
26.30470085 -8.00000000 4.92850018
25.83589935 -8.00000000 4.91050005
25.38279915 -8.00000000 4.93050003
24.91410065 -8.00000000 4.92150021
24.46089935 -8.00000000 4.92749977
23.99220085 -8.00000000 4.92549992
23.53910065 -8.00000000 4.90549994
23.07029915 -8.00000000 4.86850023
22.61720085 -8.00000000 4.89050007
22.13279915 -8.00000000 4.82550001
21.71089935 -8.00000000 4.94049978
21.24220085 -8.00000000 4.96449995
20.77339935 -8.25000000 4.94950008
20.32029915 -8.25000000 4.95450020
19.85160065 -8.25000000 4.94049978
19.39839935 -8.25000000 4.95849991
18.94529915 -8.25000000 4.95450020
18.46089935 -8.25000000 4.93750000
18.00779915 -8.25000000 4.95149994
17.55470085 -8.25000000 4.96449995
17.08589935 -8.25000000 4.94850016
16.61720085 -8.25000000 4.93750000
16.16410065 -8.25000000 4.96150017
15.69530010 -8.25000000 4.94649982
15.22659969 -8.25000000 4.94649982
14.77340031 -8.25000000 4.95450020
14.30469990 -8.25000000 4.94150019
13.83590031 -8.25000000 4.94250011
13.36719990 -8.25000000 4.93550014
12.91409969 -8.25000000 4.95249987
12.44530010 -8.25000000 4.95550013
11.96090031 -8.25000000 4.93650007
11.50780010 -8.25000000 4.94350004
11.03909969 -8.25000000 4.91550016
10.58590031 -8.25000000 4.94449997
10.10159969 -8.25000000 4.92549992
9.63280010 -8.25000000 4.92350006
9.16409969 -8.25000000 4.90850019
8.71090031 -8.25000000 4.91450024
8.24219990 -8.25000000 4.92150021
7.77339983 -8.25000000 4.91750002
7.30469990 -8.25000000 4.92549992
6.83589983 -8.50000000 4.91149998
6.36719990 -8.50000000 4.88450003
5.91410017 -8.50000000 4.95149994
5.41410017 -8.50000000 4.86350012
4.96089983 -8.50000000 4.91249990
4.49219990 -8.50000000 4.93349981
4.02339983 -8.50000000 4.92049980
3.55469990 -8.50000000 4.91750002
3.08590007 -8.50000000 4.89249992
2.61719990 -8.50000000 4.90450001
2.16409993 -8.50000000 4.91249990
1.67970002 -8.50000000 4.90450001
1.19529998 -8.50000000 4.81250000
0.72659999 -8.50000000 4.84950018
0.35159999 -8.50000000 5.22949982
-0.03910000 -8.50000000 5.55550003
0.08590000 -8.50000000 5.64750004
0.46090001 -8.50000000 5.26049995
0.83590001 -8.50000000 4.83249998
1.33589995 -8.50000000 4.91050005
1.83589995 -8.50000000 4.90350008
2.30469990 -8.50000000 4.90049982
2.78909993 -8.50000000 4.90649986
3.27340007 -8.50000000 4.93450022
3.75780010 -8.50000000 4.92649984
4.24219990 -8.50000000 4.92649984
4.71089983 -8.50000000 4.92049980
5.19530010 -8.50000000 4.90049982
5.67969990 -8.50000000 4.93149996
6.14839983 -8.50000000 4.92049980
6.63280010 -8.50000000 4.91650009
7.10160017 -8.50000000 4.92049980
7.57030010 -8.50000000 4.91149998
8.05469990 -8.50000000 4.93849993
8.52340031 -8.50000000 4.92250013
8.99219990 -8.50000000 4.91450024
9.46090031 -8.50000000 4.95849991
9.94530010 -8.50000000 4.94150019
10.39840031 -8.50000000 4.93149996
10.86719990 -8.50000000 4.93349981
11.33590031 -8.50000000 4.93550014
11.80469990 -8.50000000 4.95349979
12.27340031 -8.50000000 4.95749998
12.74219990 -8.50000000 4.96950006
13.19530010 -8.50000000 4.95949984
13.66409969 -8.50000000 4.95050001
14.13280010 -8.50000000 4.94950008
14.58590031 -8.50000000 4.97049999
15.05469990 -8.50000000 4.99949980
15.50780010 -8.50000000 4.97849989
15.96090031 -8.50000000 4.90850019
16.44529915 -8.25000000 4.98750019
16.88279915 -8.25000000 4.95249987
17.35160065 -8.25000000 4.96250010
17.80470085 -8.25000000 4.98750019
18.25779915 -8.25000000 4.94750023
18.71089935 -8.25000000 4.98050022
19.17970085 -8.25000000 4.95550013
19.63279915 -8.25000000 4.97349977
20.07029915 -8.25000000 4.87449980
20.55470085 -8.25000000 4.97949982
20.99220085 -8.25000000 4.98350000
21.44529915 -8.25000000 4.95650005
21.89839935 -8.25000000 4.92049980
22.35160065 -8.25000000 4.95050001
22.80470085 -8.25000000 4.93650007
23.25779915 -8.25000000 4.90850019
23.69529915 -8.25000000 4.87650013
24.16410065 -8.25000000 4.87150002
24.61720085 -8.25000000 4.90250015
25.05470085 -8.25000000 4.86950016
25.52339935 -8.25000000 4.90250015
25.97660065 -8.25000000 4.91750002
26.41410065 -8.25000000 4.84450006
26.88279915 -8.25000000 4.90049982
27.33589935 -8.25000000 4.88350010
28.27339935 -8.00000000 7.25850010
28.74220085 -8.00000000 7.32849979
29.39839935 -8.00000000 8.39150047
29.80470085 -8.00000000 8.13350010
30.24220085 -8.00000000 8.14150047
30.69529915 -8.00000000 8.14249992
31.14839935 -8.00000000 8.12950039
31.60160065 -7.75000000 8.13850021
32.05469894 -7.75000000 8.14850044
32.49219894 -7.75000000 8.13650036
32.92969894 -7.75000000 8.09549999
33.38280106 -7.75000000 8.10649967
33.83589935 -7.75000000 8.08150005
34.27339935 -7.75000000 8.08549976
34.72660065 -7.75000000 8.10449982
35.16410065 -7.75000000 8.03649998
35.58589935 -7.75000000 7.93450022
35.60160065 -8.00000000 5.57550001
35.97660065 -8.00000000 5.20050001
36.39839935 -8.00000000 5.05450010
36.66410065 -8.25000000 4.02150011
37.11719894 -8.25000000 4.05350018
37.58589935 -8.25000000 4.08249998
38.02339935 -8.00000000 4.08249998
38.47660065 -8.00000000 4.08650017
39.21089935 -8.00000000 5.61350012
39.66410065 -8.00000000 5.60050011
40.10160065 -8.00000000 5.55149984
40.55469894 -8.00000000 5.57149982
40.97660065 -8.00000000 5.46449995
41.41410065 -8.00000000 5.39550018
41.85160065 -8.00000000 5.32550001
42.28910065 -8.00000000 5.26350021
42.72660065 -8.00000000 5.20249987
43.16410065 -8.00000000 5.12650013
43.60160065 -8.00000000 5.05649996
44.03910065 -8.00000000 4.95949984
44.47660065 -8.00000000 4.87050009
44.91410065 -8.00000000 4.85050011
45.36719894 -8.00000000 4.86350012
45.83589935 -8.00000000 4.91550016
46.25780106 -8.00000000 4.78649998
46.71089935 -8.00000000 4.85349989
47.16410065 -8.00000000 4.79650021
47.61719894 -8.00000000 4.86950016
48.07030106 -8.00000000 4.85750008
48.50780106 -8.00000000 4.82550001
48.96089935 -8.00000000 4.86350012
49.41410065 -8.00000000 4.85249996
49.85160065 -8.00000000 4.88649988
50.30469894 -8.00000000 4.79750013
50.75780106 -7.75000000 4.87449980
51.21089935 -7.75000000 4.89449978
51.64839935 -7.75000000 4.87849998
52.10160065 -7.75000000 4.87750006
52.55469894 -7.75000000 4.92150021
52.99219894 -7.75000000 4.93650007
53.44530106 -7.75000000 4.92250013
53.88280106 -7.75000000 4.93050003
54.78910065 -7.75000000 4.92549992
55.24219894 -7.75000000 5.00950003
58.82030106 -7.75000000 5.04750013
59.69530106 -7.75000000 4.94150019
60.38280106 -7.75000000 3.43149996
60.35160065 -8.25000000 -0.12750000
60.30469894 -8.50000000 -3.85750008
60.33589935 -8.75000000 -7.05950022
60.64839935 -8.75000000 -8.22150040
61.10160065 -8.75000000 -8.26850033
61.57030106 -8.75000000 -8.19349957
62.02339935 -8.75000000 -8.21249962
62.49219894 -8.75000000 -8.16950035
62.92969894 -8.75000000 -8.28349972
63.38280106 -8.75000000 -8.34850025
61.99219894 -9.75000000 -8.48050022
61.53910065 -9.75000000 -8.40649986
61.08589935 -9.75000000 -8.40750027
60.66410065 -9.75000000 -8.07450008
60.33589935 -9.50000000 -7.08150005
60.39839935 -9.25000000 -3.14450002
60.38280106 -9.00000000 0.12450000
60.39839935 -8.75000000 3.64150000
59.67969894 -8.50000000 4.91349983
59.30469894 -8.50000000 5.43450022
58.77339935 -8.50000000 4.87249994
58.33589935 -8.50000000 4.88149977
57.88280106 -8.50000000 4.84250021
57.44530106 -8.50000000 4.88749981
56.99219894 -8.50000000 4.89849997
56.53910065 -8.50000000 4.88850021
56.08589935 -8.50000000 4.90749979
55.63280106 -8.50000000 4.92250013
54.74219894 -8.75000000 4.86049986
53.85160065 -8.75000000 4.96150017
53.41410065 -8.75000000 5.01049995
52.96089935 -8.75000000 5.05749989
52.52339935 -8.75000000 5.11649990
52.08589935 -8.75000000 5.21350002
51.64839935 -8.75000000 5.24450016
51.21089935 -8.75000000 5.35750008
50.77339935 -8.75000000 5.43849993
50.33589935 -8.75000000 5.48750019
49.89839935 -8.75000000 5.56449986
49.44530106 -8.75000000 5.58949995
49.00780106 -8.75000000 5.61950016
48.32030106 -8.75000000 4.11549997
47.86719894 -8.75000000 4.14050007
47.41410065 -8.75000000 4.06449986
46.94530106 -8.75000000 4.00950003
46.49219894 -8.75000000 4.00150013
46.13280106 -8.75000000 4.58449984
45.78910065 -8.75000000 5.25750017
45.30469894 -8.75000000 5.07049990
44.67969894 -9.00000000 3.99650002
44.22660065 -9.00000000 3.99950004
43.77339935 -9.00000000 3.98449993
43.32030106 -9.00000000 4.00349998
43.08589935 -8.75000000 5.25850010
42.63280106 -8.75000000 5.25850010
35.52339935 -10.00000000 -6.30450010
35.52339935 -9.75000000 -3.73350000
35.53910065 -9.50000000 -1.19449997
35.57030106 -9.25000000 1.39250004
35.58589935 -9.00000000 3.87450004
35.60160065 -9.00000000 6.37150002
35.50780106 -8.75000000 8.30249977
34.99219894 -8.75000000 7.95050001
34.55469894 -8.75000000 8.08250046
34.11719894 -8.75000000 8.10350037
33.66410065 -8.75000000 8.10750008
33.21089935 -8.75000000 8.11149979
32.75780106 -8.75000000 8.10249996
32.30469894 -8.75000000 8.10550022
31.85160065 -8.75000000 8.10350037
31.39839935 -8.75000000 8.14949989
30.94529915 -8.75000000 8.11649990
30.49220085 -8.75000000 8.10350037
30.03910065 -8.75000000 8.13850021
29.58589935 -8.75000000 8.08450031
29.19529915 -8.75000000 8.43649960
28.46089935 -9.25000000 4.83150005
28.02339935 -9.25000000 4.90150023
27.55470085 -9.25000000 4.92950010
27.08589935 -9.25000000 4.89050007
26.63279915 -9.25000000 4.92850018
26.17970085 -9.25000000 4.91050005
25.72660065 -9.25000000 4.92150021
25.27339935 -9.25000000 4.93349981
24.78910065 -9.25000000 4.81750011
24.33589935 -9.25000000 4.89349985
23.88279915 -9.25000000 4.91949987
23.42970085 -9.25000000 4.90649986
22.96089935 -9.25000000 4.94850016
22.49220085 -9.25000000 4.89750004
22.05470085 -9.25000000 4.92950010
21.58589935 -9.25000000 4.94549990
21.13279915 -9.25000000 4.95450020
20.66410065 -9.25000000 4.94750023
20.19529915 -9.25000000 4.90350008
19.74220085 -9.25000000 4.92850018
19.27339935 -9.25000000 4.93249989
18.82029915 -9.25000000 4.95550013
18.35160065 -9.25000000 4.93550014
17.89839935 -9.25000000 4.95749998
17.42970085 -9.25000000 4.92649984
16.96089935 -9.25000000 4.91750002
16.50779915 -9.25000000 4.93849993
16.05470085 -9.25000000 4.95949984
15.58590031 -9.50000000 4.92350006
15.11719990 -9.50000000 4.93750000
14.66409969 -9.50000000 4.95349979
14.19530010 -9.50000000 4.96150017
13.71090031 -9.50000000 4.92649984
13.25780010 -9.50000000 4.93550014
12.78909969 -9.50000000 4.90950012
12.33590031 -9.50000000 4.91750002
11.85159969 -9.50000000 4.93050003
11.39840031 -9.50000000 4.93450022
10.92969990 -9.50000000 4.92449999
10.46090031 -9.50000000 4.90749979
10.00780010 -9.50000000 4.95450020
9.52340031 -9.50000000 4.89750004
9.05469990 -9.50000000 4.90350008
8.60159969 -9.50000000 4.89550018
8.13280010 -9.50000000 4.90049982
7.66410017 -9.50000000 4.93149996
7.19530010 -9.50000000 4.88950014
6.72660017 -9.50000000 4.91249990
6.25780010 -9.50000000 4.88250017
5.78910017 -9.50000000 4.88649988
5.30469990 -9.50000000 4.84149981
4.85160017 -9.50000000 4.87550020
4.39839983 -9.50000000 4.92549992
3.92969990 -9.50000000 4.90749979
3.46090007 -9.50000000 4.90450001
2.99219990 -9.50000000 4.89949989
2.52340007 -9.50000000 4.91550016
2.03909993 -9.75000000 4.89050007
1.58589995 -9.75000000 4.90649986
1.08589995 -9.75000000 4.84250021
0.61720002 -9.75000000 4.82649994
0.25780001 -9.75000000 5.23050022
-0.10160000 -9.50000000 5.63749981
-0.05470000 -9.75000000 5.70249987
0.30469999 -9.75000000 5.25750017
0.66409999 -9.75000000 4.79850006
1.17970002 -9.75000000 4.88850021
1.66410005 -9.75000000 4.89249992
2.14840007 -9.75000000 4.88950014
2.63280010 -9.75000000 4.90250015
3.11719990 -9.75000000 4.90749979
3.60159993 -9.75000000 4.89750004
4.08589983 -9.75000000 4.91450024
4.55469990 -9.75000000 4.90049982
5.03910017 -9.75000000 4.91650009
5.52339983 -9.75000000 4.90350008
5.99219990 -9.75000000 4.91249990
6.47660017 -9.75000000 4.90850019
6.94530010 -9.75000000 4.91249990
7.42969990 -9.75000000 4.93849993
7.89839983 -9.75000000 4.90049982
8.36719990 -9.50000000 4.91349983
8.83590031 -9.50000000 4.90549994
9.32030010 -9.50000000 4.91249990
9.78909969 -9.50000000 4.92649984
10.25780010 -9.50000000 4.92049980
10.72659969 -9.50000000 4.92649984
11.19530010 -9.50000000 4.93849993
11.66409969 -9.50000000 4.94850016
12.13280010 -9.50000000 4.93750000
12.60159969 -9.50000000 4.93349981
13.05469990 -9.50000000 4.93149996
13.52340031 -9.50000000 4.93650007
13.99219990 -9.50000000 4.96350002
14.46090031 -9.50000000 4.95550013
14.91409969 -9.50000000 4.93249989
15.36719990 -9.50000000 4.88450003
15.83590031 -9.50000000 4.89249992
16.30470085 -9.50000000 4.94150019
16.75779915 -9.50000000 4.95149994
17.21089935 -9.50000000 4.96049976
17.67970085 -9.50000000 4.96350002
18.13279915 -9.50000000 4.93050003
18.58589935 -9.50000000 4.93149996
19.05470085 -9.50000000 4.94549990
19.50779915 -9.50000000 4.96250010
19.96089935 -9.50000000 4.94850016
20.41410065 -9.50000000 4.96150017
20.88279915 -9.50000000 4.98950005
21.33589935 -9.50000000 4.95949984
21.77339935 -9.50000000 4.93050003
22.24220085 -9.50000000 4.93750000
22.69529915 -9.50000000 4.95249987
23.13279915 -9.50000000 4.90950012
23.60160065 -9.25000000 4.91849995
24.05470085 -9.25000000 4.94350004
24.49220085 -9.25000000 4.93149996
24.94529915 -9.25000000 4.88549995
25.41410065 -9.25000000 4.91550016
25.85160065 -9.25000000 4.85550022
26.30470085 -9.25000000 4.90850019
26.75779915 -9.25000000 4.90649986
27.21089935 -9.25000000 4.85449982
27.67970085 -9.25000000 4.93849993
28.13279915 -9.25000000 4.92150021
29.30470085 -9.00000000 8.44649982
29.69529915 -9.00000000 8.13949966
30.13279915 -9.00000000 8.11750031
30.58589935 -9.00000000 8.11849976
31.02339935 -9.00000000 8.11950016
31.47660065 -9.00000000 8.10750008
31.91410065 -9.00000000 8.09949970
32.38280106 -9.00000000 8.11849976
32.82030106 -9.00000000 8.08950043
33.27339935 -9.00000000 8.10350037
33.71089935 -9.00000000 8.08450031
34.16410065 -9.00000000 8.08850002
34.61719894 -9.00000000 8.08549976
35.05469894 -9.00000000 8.00249958
35.52339935 -9.00000000 8.09049988
35.52339935 -9.00000000 5.80849981
35.52339935 -9.25000000 3.39150000
35.55469894 -9.50000000 1.06649995
35.46089935 -9.75000000 -1.76950002
35.49219894 -10.00000000 -4.12449980
35.46089935 -10.25000000 -6.77650023
42.61719894 -9.00000000 5.14050007
43.08589935 -9.00000000 5.20149994
43.33589935 -9.00000000 4.00349998
43.77339935 -9.00000000 3.97950006
44.22660065 -9.00000000 3.97550011
44.67969894 -9.00000000 3.98749995
45.30469894 -9.00000000 5.03249979
45.77339935 -9.00000000 5.13549995
46.13280106 -9.00000000 4.60349989
46.49219894 -9.00000000 4.03550005
46.94530106 -9.00000000 4.10550022
47.39839935 -9.00000000 4.09250021
47.85160065 -9.00000000 4.06250000
48.32030106 -9.00000000 4.22249985
48.74219894 -9.00000000 4.01249981
49.19530106 -9.00000000 4.03749990
49.63280106 -9.00000000 4.01450014
50.33589935 -8.75000000 5.64650011
50.77339935 -8.75000000 5.60249996
51.22660065 -8.75000000 5.60550022
51.66410065 -8.75000000 5.54750013
52.10160065 -8.75000000 5.52349997
52.55469894 -8.75000000 5.47849989
52.99219894 -8.75000000 5.41949987
53.42969894 -8.75000000 5.34649992
53.85160065 -8.75000000 5.27750015
54.30469894 -8.75000000 5.21449995
54.74219894 -8.75000000 5.17950010
55.21089935 -8.75000000 5.28249979
55.63280106 -8.75000000 5.15950012
56.05469894 -8.75000000 4.97749996
56.49219894 -8.75000000 4.95349979
56.92969894 -8.75000000 4.87550020
57.38280106 -8.75000000 4.91450024
57.82030106 -8.75000000 4.84749985
58.27339935 -8.75000000 4.84950018
58.72660065 -8.75000000 4.94549990
59.24219894 -8.75000000 5.43249989
59.60160065 -8.75000000 4.84450006
60.35160065 -8.75000000 3.72550011
60.33589935 -9.25000000 0.28049999
60.35160065 -9.50000000 -2.98250008
60.25780106 -9.75000000 -7.04850006
60.60160065 -9.75000000 -7.96649981
61.00780106 -10.00000000 -8.34850025
61.46089935 -10.00000000 -8.38549995
61.92969894 -9.75000000 -8.34749985
62.08589935 -10.25000000 -8.45549965
61.63280106 -10.25000000 -8.37450027
61.17969894 -10.25000000 -8.34049988
60.75780106 -10.25000000 -7.99749994
60.30469894 -10.00000000 -4.47550011
60.35160065 -9.50000000 -0.80949998
60.30469894 -9.25000000 2.18750000
59.80469894 -9.00000000 5.20749998
59.35160065 -9.00000000 5.18650007
58.92969894 -9.00000000 5.37050009
58.46089935 -9.25000000 5.27650023
58.02339935 -9.25000000 5.32649994
57.58589935 -9.25000000 5.34450006
57.14839935 -9.25000000 5.40649986
56.71089935 -9.25000000 5.45550013
56.27339935 -9.25000000 5.50349998
55.83589935 -9.25000000 5.56050014
55.36719894 -9.25000000 5.50649977
54.91410065 -9.25000000 5.41149998
54.27339935 -9.25000000 4.16050005
53.80469894 -9.25000000 4.06349993
53.35160065 -9.25000000 4.05350018
52.89839935 -9.25000000 4.01949978
52.44530106 -9.25000000 4.00050020
51.99219894 -9.25000000 4.02050018
51.53910065 -9.25000000 4.01049995
51.08589935 -9.50000000 3.99950004
50.80469894 -9.25000000 5.08650017
50.35160065 -9.25000000 5.08150005
49.77339935 -9.50000000 4.18249989
49.35160065 -9.50000000 4.42950010
48.86719894 -9.50000000 4.21950006
48.47660065 -9.25000000 4.63250017
47.99219894 -9.50000000 4.34950018
45.86719894 -9.25000000 5.23449993
35.50780106 -10.25000000 -1.77750003
35.55469894 -10.00000000 0.89349997
35.49219894 -9.75000000 3.06349993
35.49219894 -9.50000000 5.46449995
35.49219894 -9.25000000 7.90150023
35.08589935 -9.25000000 8.06350040
34.63280106 -9.25000000 8.08049965
34.19530106 -9.25000000 8.09850025
33.72660065 -9.25000000 8.07849979
33.27339935 -9.25000000 8.12250042
32.83589935 -9.50000000 8.09749985
32.38280106 -9.50000000 8.13249969
31.92970085 -9.50000000 8.13749981
31.46089935 -9.50000000 8.11450005
31.00779915 -9.50000000 8.08450031
30.55470085 -9.50000000 8.09150028
30.10160065 -9.50000000 8.10149956
29.66410065 -9.50000000 8.15050030
29.25779915 -9.50000000 8.41049957
28.08589935 -9.75000000 4.91450024
27.61720085 -9.75000000 4.87349987
27.16410065 -9.75000000 4.91249990
26.71089935 -9.75000000 4.90150023
26.24220085 -9.75000000 4.92049980
25.78910065 -9.75000000 4.91050005
25.33589935 -9.75000000 4.91249990
24.86720085 -9.75000000 4.91349983
24.41410065 -9.75000000 4.91949987
23.94529915 -9.75000000 4.93050003
23.49220085 -9.75000000 4.90250015
23.02339935 -9.75000000 4.89349985
22.57029915 -9.75000000 4.93249989
22.11720085 -9.75000000 4.95249987
21.66410065 -9.75000000 4.96350002
21.19529915 -10.00000000 4.97249985
20.72660065 -10.00000000 4.93849993
20.27339935 -10.00000000 4.94150019
19.80470085 -10.00000000 4.95149994
19.33589935 -10.00000000 4.94049978
18.88279915 -10.00000000 4.96350002
18.41410065 -10.00000000 4.93349981
17.96089935 -10.00000000 4.94250011
17.49220085 -10.00000000 4.94350004
17.03910065 -10.00000000 4.94649982
16.57029915 -10.00000000 4.94049978
16.10160065 -10.00000000 4.92350006
15.63280010 -10.00000000 4.93349981
15.16409969 -10.00000000 4.87750006
14.71090031 -10.00000000 4.94950008
14.24219990 -10.00000000 4.95050001
13.77340031 -10.00000000 4.93050003
13.32030010 -10.00000000 4.94649982
12.85159969 -10.00000000 4.92649984
12.38280010 -10.00000000 4.93750000
11.92969990 -10.00000000 4.94049978
11.46090031 -10.00000000 4.92250013
10.99219990 -10.00000000 4.90549994
10.52340031 -10.00000000 4.93949986
10.05469990 -10.00000000 4.86649990
9.60159969 -10.00000000 4.94250011
9.11719990 -10.00000000 4.89849997
8.66409969 -10.25000000 4.90350008
8.19530010 -10.25000000 4.90549994
7.71089983 -10.25000000 4.88450003
7.25780010 -10.25000000 4.90649986
6.77339983 -10.25000000 4.87849998
6.30469990 -10.25000000 4.85850000
5.85160017 -10.25000000 4.88749981
5.38280010 -10.25000000 4.85050011
4.91410017 -10.25000000 4.89449978
4.44530010 -10.25000000 4.89849997
3.97659993 -10.25000000 4.88850021
3.49219990 -10.25000000 4.87650013
3.03909993 -10.25000000 4.89150000
2.57030010 -10.25000000 4.89050007
2.10159993 -10.25000000 4.92549992
1.63279998 -10.25000000 4.91550016
1.16410005 -10.25000000 4.90950012
0.66409999 -10.25000000 4.81750011
0.32030001 -10.25000000 5.27750015
-0.03910000 -10.25000000 5.70650005
0.16410001 -10.50000000 5.28450012
0.53909999 -10.50000000 4.84149981
1.05470002 -10.50000000 4.92150021
1.52339995 -10.50000000 4.92549992
2.00780010 -10.50000000 4.90150023
2.49219990 -10.50000000 4.90649986
2.96090007 -10.50000000 4.87550020
3.46090007 -10.25000000 4.93249989
3.94530010 -10.25000000 4.91050005
4.42969990 -10.25000000 4.91050005
4.89839983 -10.25000000 4.90350008
5.38280010 -10.25000000 4.89050007
5.86719990 -10.25000000 4.92950010
6.33589983 -10.25000000 4.91750002
6.80469990 -10.25000000 4.90749979
7.28910017 -10.25000000 4.91149998
7.77339983 -10.25000000 4.93050003
8.24219990 -10.25000000 4.92150021
8.71090031 -10.25000000 4.91050005
9.19530010 -10.25000000 4.94150019
9.64840031 -10.25000000 4.89849997
10.10159969 -10.25000000 4.84350014
10.60159969 -10.25000000 4.95149994
11.05469990 -10.25000000 4.94649982
11.52340031 -10.25000000 4.94150019
11.99219990 -10.25000000 4.93750000
12.46090031 -10.25000000 4.93349981
12.92969990 -10.25000000 4.93050003
13.39840031 -10.25000000 4.95749998
13.85159969 -10.25000000 4.92649984
14.32030010 -10.25000000 4.95450020
14.77340031 -10.25000000 4.94250011
15.22659969 -10.25000000 4.88450003
15.69530010 -10.25000000 4.95450020
16.14839935 -10.25000000 4.91249990
16.63279915 -10.25000000 4.97149992
17.08589935 -10.25000000 4.95949984
17.53910065 -10.00000000 4.96150017
17.99220085 -10.00000000 4.96549988
18.46089935 -10.00000000 4.98850012
18.91410065 -10.00000000 4.94350004
19.35160065 -10.00000000 4.92649984
19.82029915 -10.00000000 4.93149996
20.27339935 -10.00000000 4.95450020
20.72660065 -10.00000000 4.94350004
21.19529915 -10.00000000 4.98649979
21.64839935 -10.00000000 4.97149992
22.10160065 -10.00000000 4.98549986
22.55470085 -10.00000000 4.95749998
23.00779915 -10.00000000 4.94449997
23.46089935 -10.00000000 4.95050001
23.91410065 -10.00000000 4.94049978
24.36720085 -10.00000000 4.94250011
24.82029915 -10.00000000 4.95349979
25.27339935 -10.00000000 4.93450022
25.71089935 -10.00000000 4.90850019
26.17970085 -10.00000000 4.94250011
26.63279915 -10.00000000 4.93249989
27.08589935 -10.00000000 4.93050003
27.52339935 -10.00000000 4.87449980
27.97660065 -10.00000000 4.91949987
29.14839935 -9.50000000 8.45349979
29.58589935 -9.50000000 8.36550045
30.02339935 -9.50000000 8.31449986
30.44529915 -9.50000000 8.22049999
30.88279915 -9.50000000 8.11849976
31.32029915 -9.50000000 8.07649994
31.77339935 -9.50000000 8.11950016
32.22660065 -9.50000000 8.09549999
32.67969894 -9.50000000 8.11750031
33.10160065 -9.50000000 8.02849960
33.57030106 -9.50000000 8.08850002
34.02339935 -9.50000000 8.09949970
34.46089935 -9.50000000 8.11149979
34.89839935 -9.50000000 8.02350044
35.39839935 -9.50000000 8.29349995
35.46089935 -9.75000000 6.25250006
35.44530106 -10.00000000 3.74250007
35.44530106 -10.00000000 1.40750003
48.32030106 -9.50000000 5.24149990
48.71089935 -9.50000000 4.96449995
49.13280106 -9.50000000 4.70249987
