306969.6495 2769623.8575 154.1105000000001
307000.2515 2769649.8335 228.0065000000001
307018.5455 2769646.9405 214.8725000000001
307023.9825 2769623.4325 154.2345000000001 1
307023.8055 2769608.4105 103.8545000000001
306971.1285 2769612.4885 183.8265000000001
306973.1915 2769632.3415 150.3535000000001
306990.3325 2769649.8825 226.8455000000001
307024.6375 2769624.2205 97.38750000000016
306970.6395 2769625.4995 183.1995000000001
306989.6205 2769654.1845 80.42950000000008
306969.2125 2769624.5545 80.7315000000001
307015.4895 2769657.1535 32.73550000000012
306994.5605 2769652.9565 93.1735000000001
307016.1985 2769649.5895 129.0115000000001
306990.4875 2769649.5715 190.2145000000002
307009.6075 2769648.4175 146.4345000000001
306999.2675 2769651.6535 109.9455000000002
306995.3495 2769648.8125 182.7095000000001
306985.3715 2769651.2685 183.8255000000002
306982.8655 2769649.1015 149.9325000000001
306969.2355 2769651.2525 80.65250000000015
306967.1595 2769624.5195 61.91950000000009
306985.8595 2769651.2455 183.8295000000002
307031.2895 2769658.9895 29.97950000000014
306986.0375 2769652.0685 217.4335000000001
306967.0815 2769621.8265 61.84150000000011
306988.0985 2769651.8435 106.0395000000001
307016.9015 2769649.9195 214.9075000000001
307018.3565 2769652.0465 217.2505000000001
306970.8605 2769624.7255 182.4155000000002
306991.2535 2769654.4045 76.29550000000006
306967.8345 2769619.6975 67.93550000000016
306979.7245 2769649.1715 184.5265000000001
307023.8825 2769632.6795 103.8645000000001
306971.3425 2769643.6235 183.8355000000001
307029.9095 2769649.9895 32.6495000000001
306970.7865 2769610.3585 183.8445
306991.9355 2769651.1685 176.4625000000001
306983.6545 2769654.2305 80.71450000000016
307012.5355 2769656.5835 63.39750000000015
307006.5775 2769651.8115 101.7135000000001
307018.7165 2769648.5005 146.2355000000001
307000.0355 2769650.0285 198.6755000000002
306997.6895 2769651.1155 217.0245000000001
306971.3265 2769620.6265 182.8985000000001
307011.3835 2769650.1155 181.1805000000001
306969.6665 2769620.3915 151.7355000000001
307022.4275 2769621.8495 153.7375000000001
307024.7465 2769627.7435 95.46350000000007
307022.9935 2769615.8685 118.3545000000001
307011.1015 2769649.5415 214.9305000000001
307028.0315 2769620.9315 58.39150000000007
306971.8895 2769619.4055 118.3975000000002
306993.4095 2769654.9335 62.07050000000015
306972.9665 2769622.3755 181.2255000000001
307000.9185 2769648.8715 182.3245000000001
307024.1825 2769619.0185 183.0885000000001
307018.2045 2769649.9775 183.7175000000001
306996.5285 2769652.1335 101.6855000000002
306969.1325 2769646.4595 80.68550000000016
306995.4415 2769651.0065 181.6075000000001
306969.5895 2769612.6195 89.42950000000008
307008.2175 2769650.3805 172.2465000000001
307030.6645 2769648.0495 29.9525000000001
307010.8215 2769648.4595 218.1425
306976.0905 2769647.3255 223.7615000000002
307010.3835 2769648.6035 181.5585000000001
307016.8335 2769645.2695 217.9225000000001
306978.5235 2769646.5195 218.4445000000002
306969.4105 2769634.0375 80.84850000000006
307025.4305 2769630.3605 151.8615000000001
306991.8025 2769648.9085 182.7515000000001
307021.0735 2769646.4465 149.0915000000001
306972.1665 2769638.4935 183.7565000000001
306992.4575 2769650.8455 207.0585000000001
307023.6175 2769628.5935 182.5985000000002
307029.4405 2769654.1115 32.68450000000007
306976.7315 2769645.8105 214.8725000000001
306972.2735 2769614.0915 215.2805000000001
307003.6275 2769650.2465 201.6785000000001
306979.6635 2769657.0575 92.73350000000016
307017.3135 2769651.1115 114.2195
306972.0655 2769613.9865 181.2325000000001
307001.7815 2769649.5285 215.1145000000001
306987.4785 2769650.9985 217.2485000000002
307006.6165 2769654.0455 76.34950000000015
306999.2925 2769648.8285 183.6615000000001
307027.9505 2769623.6625 58.36250000000007
306968.0625 2769618.4365 66.08350000000007
307001.7655 2769648.8415 219.6575000000001
306980.7485 2769654.0495 80.86350000000005
306970.3675 2769625.0315 97.39550000000008
306969.2785 2769627.4185 141.0905000000001
306970.9295 2769641.8895 100.8495000000002
306976.7655 2769648.9115 175.1855000000002
307005.2515 2769652.4345 97.42150000000004
306985.8595 2769650.1465 221.8025000000001
306968.8395 2769633.5995 76.78950000000009
307013.5325 2769649.3915 160.9525000000001
307004.8695 2769645.2995 217.4655000000001
307009.8745 2769649.4865 226.8535000000001
307010.3645 2769648.6155 147.5725000000001
306982.0495 2769652.8565 96.68750000000011
306972.4815 2769659.3295 92.54950000000008
307004.5495 2769648.8155 216.6115000000001
307027.9565 2769652.7295 58.6015000000001
307028.5565 2769608.1115 32.62050000000011
306968.7795 2769616.7795 78.65950000000009
306992.0555 2769654.8195 68.80550000000005
306972.4765 2769657.9695 92.62050000000011
306988.7395 2769659.3345 61.60450000000014
306967.6595 2769611.3195 67.26950000000011
306969.5385 2769639.9955 80.76150000000007
307019.6435 2769651.1365 114.1625000000001
307030.4085 2769620.1025 58.92550000000006
306971.6115 2769641.2945 111.7905000000001
306968.9595 2769612.5095 78.70950000000005
307025.7395 2769610.8395 81.08950000000016
306991.9045 2769649.4235 223.8745000000001
306978.2505 2769648.1575 214.8725000000001
307030.4595 2769644.0805 29.95650000000012
307025.2645 2769628.7925 153.3485000000002
306971.4295 2769639.8045 217.4965000000001
307014.4155 2769650.6595 217.5685000000001
307024.0815 2769628.1685 103.8305000000001
307029.4945 2769630.9355 58.95450000000017
307023.7615 2769647.4945 114.2565000000001
307026.7885 2769647.2075 72.29250000000013
306972.3675 2769623.5565 215.1585000000001
307030.6365 2769651.2715 29.97350000000006
306976.2155 2769645.7065 181.2115000000001
307010.4845 2769659.3605 63.22450000000015
306970.7315 2769659.1955 92.62650000000008
307001.2885 2769650.6885 122.5335000000001
306969.3565 2769645.6045 80.73650000000009
307027.9595 2769619.0495 47.85950000000014
306970.6365 2769617.8455 183.3565000000001
307011.0585 2769651.0085 183.8975000000002
307028.4525 2769656.9605 32.69850000000008
306967.3245 2769625.8185 61.94350000000009
307022.0725 2769634.0175 133.2195
307009.2145 2769649.7945 214.9165000000002
307017.3325 2769647.7965 214.8835000000001
307015.1495 2769647.0235 215.1975000000001
307023.3415 2769628.8585 153.2805000000001
307025.6305 2769619.7555 151.9945000000001
307011.7835 2769648.5065 145.6555000000001
307024.4775 2769640.1635 100.8385000000001
307000.1065 2769652.1825 101.5185000000001
307015.8045 2769650.5655 207.0495000000001
307002.6145 2769650.5695 152.6055000000001
306967.1035 2769615.0685 61.92050000000006
307001.7025 2769651.9735 182.6345000000001
307024.1585 2769643.9185 183.8045000000001
307014.5435 2769648.3945 145.2925000000001
306967.6195 2769612.4595 66.13950000000011
306989.3425 2769649.0185 184.1495000000001
306989.7515 2769657.6335 61.61250000000007
306969.2695 2769634.9985 84.77750000000015
306998.3065 2769653.4535 88.83550000000014
307003.0805 2769648.7115 181.2675
306991.3705 2769654.2045 75.28750000000014
307018.2925 2769655.1555 58.45150000000012
306971.3035 2769646.5595 217.2775000000002
307012.2435 2769656.4965 63.41050000000007
306972.0895 2769612.8735 181.1985000000001
307026.9295 2769622.8365 66.05650000000014
307028.7485 2769637.7805 43.47850000000005
306976.7125 2769650.2605 217.1575000000001
306972.4955 2769636.9475 181.2395000000001
306971.4995 2769645.5745 217.3765000000001
306976.7505 2769650.9695 183.6415000000001
307015.4135 2769648.8135 181.3055000000001
307017.4415 2769646.2635 217.7595000000001
307022.4545 2769640.3605 129.0425000000001
306986.3445 2769650.3575 198.5685000000001
306972.4735 2769627.1865 181.1725000000001
307014.9275 2769650.7585 176.4525000000001
306971.1845 2769621.6455 152.9785000000001
307006.3865 2769654.0485 75.04350000000011
307000.1015 2769653.3135 88.82150000000013
306983.6095 2769649.6685 223.7965
306982.0135 2769649.0495 216.1705000000001
307013.1675 2769649.5385 214.9545000000002
307029.0595 2769624.6395 58.95950000000005
306995.7645 2769650.9765 117.0565000000001
306984.2845 2769651.3635 175.1955000000002
306970.4125 2769623.1205 97.54550000000006
307005.1385 2769648.7035 217.9485000000001
307000.4095 2769652.0885 101.6105000000001
306994.1245 2769651.1575 115.5715000000001
307029.8965 2769631.0115 58.84250000000009
307013.6575 2769650.1815 169.2545000000001
307024.1015 2769629.9105 105.7295000000001
307016.0325 2769648.6925 183.4485000000001
306972.0775 2769621.3925 118.6695000000001
306968.6965 2769617.0975 80.5775000000001
307025.9085 2769657.2905 30.05150000000015
307012.2975 2769648.6475 215.3645000000001
307002.0045 2769651.6975 216.3195000000002
307030.7215 2769654.9245 29.97950000000014
306974.7425 2769644.2255 184.6065000000001
306969.3315 2769625.0645 140.9745000000002
306970.5785 2769636.5255 183.6325000000001
307023.7045 2769615.4905 108.0485000000001
306989.5555 2769651.2025 183.4665000000001
306997.9955 2769649.9765 228.0135000000001
307017.8205 2769647.4165 150.8265000000001
306973.6455 2769643.1565 181.2245000000002
307023.9615 2769630.8675 103.8395000000002
307029.7255 2769612.2785 29.96250000000009
307013.5165 2769648.9475 143.1425
307027.5335 2769656.4625 30.08150000000012
307029.5445 2769629.7255 58.89850000000013
306970.9275 2769618.5685 183.2835000000001
306969.0325 2769641.6625 80.66750000000013
307010.6265 2769651.5685 217.4655000000001
306970.1905 2769649.8155 89.38150000000007
307022.3375 2769646.1335 183.5735000000001
306984.9625 2769649.6485 223.8595000000001
307014.9705 2769651.4735 217.5525000000001
307022.2325 2769648.2235 131.4875000000001
307022.0335 2769634.9085 133.2235000000002
306979.3445 2769649.3505 219.6855000000002
307011.1345 2769648.6585 215.0065000000001
307026.1385 2769632.7125 76.55150000000015
306990.6485 2769651.2835 177.6845000000001
307002.7455 2769650.9025 173.4025000000002
307029.5215 2769652.2445 32.68050000000005
307026.4675 2769656.8625 32.61750000000006
307022.9565 2769641.5325 181.1785000000001
307017.8825 2769648.4645 144.6815000000001
306968.9695 2769611.2095 82.91950000000009
307000.6975 2769650.4255 168.0515000000002
307024.2475 2769621.9515 101.7195
307019.0415 2769650.4465 117.6755000000002
306979.2065 2769658.8145 92.63750000000016
306973.0665 2769608.7905 181.2065000000001
307003.6885 2769651.9785 103.8235000000001
307014.1185 2769651.4185 183.9265000000002
307004.8035 2769654.1865 73.58350000000007
307008.3595 2769646.0005 184.1595000000001
307017.6315 2769651.3315 114.0815000000001
307012.6245 2769650.2575 169.2545000000001
307007.4875 2769655.5055 61.8755000000001
307028.6145 2769621.2105 58.50250000000017
306970.3955 2769622.1105 153.3225000000001
306973.2975 2769611.2135 215.0185000000001
307023.5305 2769642.1365 217.5395000000001
307004.8085 2769651.6355 106.0885000000001
307028.2765 2769633.7045 48.81450000000007
306972.2445 2769646.7545 180.6475000000002
307013.7315 2769648.6195 143.9025000000002
307027.9075 2769656.8265 30.12350000000015
307000.5855 2769650.9865 116.2035000000001
306978.0585 2769650.2655 198.7315000000001
307024.4115 2769648.0015 106.2325000000001
306985.0665 2769656.7985 82.85450000000014
306967.4445 2769613.7605 61.97850000000005
307029.2515 2769627.3495 58.99250000000006
306971.6605 2769641.4725 183.8355000000001
306998.7925 2769648.8475 186.0715000000001
306982.8155 2769656.5075 82.84550000000013
306967.3275 2769626.9435 61.87150000000008
306973.7585 2769658.8445 92.47850000000005
306970.9895 2769638.3395 217.4395000000001
306968.0795 2769638.2595 62.0295000000001
306972.1675 2769610.6515 215.0765000000001
307020.5225 2769653.2095 82.87050000000011
307024.4385 2769641.0735 100.8275000000001
307023.7765 2769642.4325 183.9045000000001
307021.9905 2769635.8305 133.1765000000002
306984.8925 2769651.7795 110.7205000000001
306974.8565 2769645.9895 169.1715
306998.9465 2769651.0165 116.2745000000001
306969.2595 2769644.5845 80.71050000000014
307005.0295 2769652.0095 101.7505000000001
306973.1745 2769609.3965 135.6155000000001
307028.5555 2769649.6045 49.74350000000015
306967.0245 2769614.0015 61.89550000000008
306971.6935 2769630.2035 216.3275000000001
307022.2695 2769647.3295 131.4445000000002
306971.9055 2769630.3155 182.7575000000001
306976.1815 2769646.6155 181.2575000000001
306990.9865 2769653.7285 84.73350000000016
307007.0655 2769654.1655 72.18650000000014
306981.5465 2769649.8275 223.7895000000001
307003.9325 2769649.3625 181.2605000000001
307003.3915 2769648.7205 218.3165000000001
306970.7445 2769611.7815 217.4775000000001
307022.3245 2769618.4565 215.4355000000002
307001.0345 2769659.3385 61.54750000000013
306971.6795 2769608.9175 217.4995000000001
307009.7295 2769649.2755 158.4685000000001
307023.7355 2769612.8275 217.3975000000002
307024.5605 2769619.2585 151.6015000000001
306982.3675 2769649.7945 193.2155000000001
306968.7395 2769637.1195 72.69950000000006
307020.0905 2769654.1355 72.29250000000013
306974.7695 2769659.7265 92.47750000000008
306977.8485 2769657.1485 92.48950000000014
306997.4845 2769651.7605 154.4465000000001
306990.9155 2769649.5085 215.1785000000001
306971.8755 2769630.3295 216.3605000000001
306971.0195 2769617.4695 106.1695000000001
307023.9515 2769637.8565 217.4805000000001
307022.3595 2769643.8565 130.2005000000002
307025.9885 2769638.5405 82.85750000000007
307022.0035 2769609.7355 181.2175000000001
307000.9035 2769652.3165 153.6835000000001
306970.6655 2769642.4415 183.8635
307026.7695 2769626.5035 66.04250000000013
306968.9195 2769613.5995 78.67950000000008
307022.9595 2769644.6065 118.8155
307027.7375 2769622.7085 58.3755000000001
306990.9465 2769648.6175 215.1805000000001
306975.3745 2769656.6765 92.5585000000001
306972.0245 2769646.8805 183.6315000000001
307028.2845 2769634.6205 49.74550000000011
307029.9695 2769612.3195 29.98950000000014
306981.6895 2769652.2665 217.5975000000001
307019.8125 2769646.7005 148.6535000000001
307030.4275 2769653.6775 29.96650000000011
306970.3195 2769658.3895 92.60950000000014
307029.4095 2769638.2595 36.21950000000015
306979.6645 2769651.4935 217.4315000000001
306969.2195 2769648.1855 80.68450000000007
307027.2775 2769658.3375 29.94050000000016
306976.8685 2769646.5055 214.9605000000001
306969.6095 2769612.7595 87.10950000000014
307007.3325 2769648.6995 181.2445000000001
307029.3125 2769611.9885 32.61350000000005
306987.7125 2769650.7935 204.6675000000001
306994.0095 2769649.0525 218.1695000000001
307026.4255 2769641.8425 72.38450000000012
307000.9405 2769651.3915 153.6605000000001
307020.5145 2769648.3975 213.0535000000001
306976.1985 2769609.0505 218.0205000000001
307028.0705 2769626.1435 59.56050000000016
306998.7155 2769652.1505 154.4545000000002
306996.5565 2769653.3905 88.81950000000006
306971.2175 2769637.1845 217.2825000000001
306970.8595 2769620.4795 182.9895000000001
306992.4225 2769653.0935 88.98850000000005
306988.7785 2769649.6895 225.6635000000001
307012.8745 2769650.8275 176.4625000000001
306971.5075 2769635.8015 183.5765000000001
306970.3835 2769624.0925 97.54150000000016
307020.3255 2769651.1225 114.2015000000001
307025.5115 2769631.0075 84.97950000000014
306998.7635 2769651.1415 114.9595000000001
307023.6645 2769636.0745 183.6965000000001
307016.7905 2769651.7925 102.0355000000001
306972.4285 2769635.5605 181.1895000000001
307008.1865 2769649.1335 154.1955000000002
307024.1125 2769658.6295 30.0005000000001
306970.1595 2769641.5795 92.44950000000006
306992.3275 2769649.7135 193.2345000000001
307023.5885 2769618.1545 108.0705000000002
306971.7195 2769646.3315 114.1985000000001
307023.6895 2769613.7515 106.2515000000001
307007.5595 2769648.6725 143.3965000000002
307015.7975 2769648.7465 150.9835000000002
307007.8315 2769651.1905 217.2935000000001
306969.2105 2769650.3925 80.68850000000009
306975.7895 2769647.0325 148.7485000000002
307006.1705 2769653.9065 80.46950000000015
307020.2095 2769647.4495 216.6025000000001
306971.0995 2769636.2295 106.2595000000001
306993.4005 2769656.7755 61.59450000000015
306972.9855 2769632.5745 214.9115000000001
306973.1085 2769642.3275 181.2505000000001
307024.0475 2769630.6125 151.4845000000001
307015.4605 2769650.4005 207.0575000000001
306971.4895 2769635.4745 221.1455000000001
306977.3735 2769649.1675 147.7815000000002
307019.7385 2769659.0555 29.99150000000009
307028.7565 2769629.0735 58.53750000000014
306985.0265 2769659.3145 82.81250000000011
307029.7335 2769622.0545 58.91750000000013
307004.9705 2769651.7045 183.2325000000001
306973.0665 2769646.6755 183.6255000000001
306988.8825 2769654.6245 70.5485000000001
307009.0095 2769652.4605 96.65050000000008
307024.0035 2769641.6795 183.8715000000001
307029.3525 2769611.0665 32.61950000000013
306993.9905 2769653.8895 80.59450000000015
306972.0755 2769642.1155 217.4485000000001
306976.7225 2769651.8725 183.6305000000001
306973.9025 2769635.0325 181.2315000000001
307030.3205 2769622.2775 58.95550000000014
306969.8295 2769651.7895 84.11950000000013
307012.9155 2769659.2915 63.41350000000011
307025.5885 2769629.1995 84.94250000000011
306970.6325 2769612.8985 217.4695
307017.7875 2769650.5465 205.8145000000001
307003.1975 2769653.3765 84.86850000000015
306992.4635 2769648.9215 182.8385000000001
306999.1095 2769653.5695 80.92650000000015
306971.8195 2769624.6695 183.0895000000002
306993.3575 2769654.7605 68.07850000000008
306970.2635 2769615.7955 183.6135
307021.4625 2769649.9095 126.0635000000001
307029.3985 2769656.7025 37.06550000000004
307005.9245 2769653.5265 81.12650000000008
306979.8875 2769650.7085 169.2905000000001
307023.5975 2769646.7635 110.4225000000001
306994.9535 2769654.0295 76.6065000000001
307008.2885 2769650.7575 177.7025000000001
306970.3095 2769637.1495 95.47950000000014
307019.8455 2769648.2885 147.5915000000001
307001.7575 2769655.1455 62.09350000000006
306980.2325 2769654.4215 80.63450000000012
306969.6835 2769610.5595 91.22850000000005
306989.7865 2769650.2025 130.9235000000001
306972.4245 2769614.4615 214.8995000000001
306997.7335 2769652.2125 216.5005000000001
306972.4865 2769624.3505 181.1845000000001
307021.5755 2769617.2325 133.2405000000001
307003.9165 2769649.4445 181.2465000000001
306996.4865 2769658.0265 61.55250000000012
306971.0495 2769638.6495 102.0995000000002
306975.4915 2769608.1025 151.0035000000001
307030.9115 2769650.6785 29.9765000000001
306997.6685 2769648.9165 184.5735000000001
306972.4545 2769643.6905 217.4725000000001
307024.2665 2769646.3975 102.0475000000001
306972.2275 2769637.4355 183.7385
307015.4375 2769651.1295 183.8495000000002
307019.0795 2769650.4995 183.6585000000001
306972.0085 2769608.7285 183.8845000000001
306970.9095 2769641.7895 102.1095000000001
307015.5315 2769650.5585 114.4585000000001
307021.7735 2769615.8245 130.9545000000002
307023.8495 2769636.1925 106.2315000000001
306973.2875 2769622.8135 215.0265000000001
306975.4365 2769644.2205 184.4025000000002
307021.7965 2769649.7355 216.4975000000001
307027.9935 2769631.4785 55.0245000000001
307012.2835 2769648.6065 152.4875000000001
306968.9795 2769611.3195 81.11950000000013
306970.5595 2769618.1595 217.0095000000001
307029.6825 2769626.1745 58.90350000000012
306971.3425 2769630.1715 216.2985000000001
306971.0195 2769638.4195 105.0795000000002
306974.2485 2769624.1125 181.2685000000001
307024.9195 2769640.8795 93.70150000000012
306974.1385 2769651.4755 114.6155000000001
306989.6115 2769650.3365 126.7815000000002
307021.5595 2769649.2345 133.2155000000001
306996.8525 2769649.4805 225.6505000000001
307014.4955 2769650.8235 217.5075000000001
307025.0625 2769626.4895 154.3165000000001
306982.7715 2769654.7645 80.48450000000014
307029.7805 2769658.6595 29.97150000000011
307016.2425 2769648.0325 214.8095000000001
307029.6195 2769624.7595 58.95950000000005
306970.1105 2769622.0625 153.2765000000001
306971.6915 2769608.2195 118.8695000000001
306969.8185 2769653.1675 80.71750000000009
306975.6465 2769648.1305 148.6455000000001
307022.5165 2769636.9025 127.2495000000001
307011.2965 2769651.2405 183.8805000000001
306967.0005 2769618.9905 61.84150000000011
306971.2915 2769643.9845 217.4585000000001
307023.5995 2769615.5495 106.0635000000001
306970.6785 2769636.1355 183.5995000000002
307025.8725 2769625.2785 81.06050000000016
306985.8085 2769651.3015 114.6015000000001
306972.2135 2769634.8475 183.4535000000001
307005.4135 2769658.2025 62.58850000000007
306989.7215 2769658.6175 61.59350000000006
306992.3545 2769650.1495 127.2095000000001
307025.4985 2769633.6475 87.00150000000008
306985.6965 2769649.0915 217.3645000000001
307030.4295 2769627.4895 58.95950000000005
307029.0415 2769624.0095 58.89350000000013
306970.8595 2769659.1925 92.50850000000014
307019.9955 2769647.9515 149.0855000000001
306971.0985 2769611.0305 183.8915000000001
307022.8635 2769615.6725 223.3445
307012.5205 2769650.9125 217.5785000000001
307018.7325 2769654.9605 58.51850000000013
306982.8255 2769649.7695 189.0315000000002
307020.2635 2769647.8675 216.5415000000002
307014.1245 2769649.1375 155.4015000000001
307015.8985 2769648.6825 151.2215000000001
307025.1645 2769646.0475 92.40750000000014
307028.9625 2769629.6335 58.90950000000009
307026.4795 2769644.4485 75.66050000000007
306971.3245 2769644.7755 183.7835000000001
306970.6295 2769650.8795 93.75950000000012
307004.9675 2769651.2705 110.9955000000001
306998.1285 2769649.7255 226.8695000000001
306970.6405 2769633.9065 183.3455000000001
307008.6415 2769648.7655 183.1575000000001
306971.5865 2769641.1055 217.4865000000001
307016.3835 2769648.1945 181.2655000000001
307024.3415 2769610.4735 93.68750000000011
306970.2875 2769624.6625 154.3045000000001
307025.2695 2769641.7215 89.47750000000008
306970.8265 2769621.0625 182.9125000000001
307016.0235 2769650.1105 201.7025000000001
306988.2695 2769650.4295 169.3045000000001
306969.3015 2769624.5525 141.0125000000002
306990.8195 2769651.6885 216.9255000000002
307029.2905 2769621.9985 40.70450000000017
306970.8695 2769642.8395 102.0395000000001
307026.5745 2769637.2945 71.42450000000008
307022.9935 2769657.1615 32.69950000000006
306969.4835 2769641.7685 80.71050000000014
307027.9105 2769633.3185 54.96150000000012
307018.0825 2769647.6265 214.8255000000002
306969.1195 2769608.1395 81.08950000000016
306972.5915 2769656.8375 92.61350000000005
307030.4925 2769645.1345 29.98650000000009
307007.6395 2769648.4535 146.8585000000002
306970.6315 2769634.2845 183.4185000000001
307014.4165 2769646.3825 184.2705000000001
306969.5255 2769619.0885 149.4575000000001
306971.5655 2769644.0235 217.5165000000001
307020.5385 2769645.7145 214.8845000000001
307028.6655 2769645.9235 48.79450000000009
306974.0115 2769631.0225 214.8965000000002
306973.2565 2769646.6585 217.1765000000002
306993.8205 2769650.8035 118.4555000000001
306970.7485 2769610.3015 217.5035000000001
307014.3545 2769651.1275 114.2015000000001
307000.2135 2769652.7735 154.0535000000001
307006.1505 2769653.8665 76.59950000000015
307012.9935 2769650.8795 113.7855000000001
307029.3395 2769618.9875 58.86850000000015
306990.0575 2769648.8155 182.4505000000002
307006.5655 2769650.7695 118.4555000000001
306970.5365 2769629.3625 153.5055000000001
306976.7965 2769650.0065 183.5005000000001
307016.8435 2769654.9125 58.58950000000016
307022.9965 2769642.7435 183.8865000000001
306985.8765 2769649.3055 184.4005000000001
307000.8095 2769648.8035 184.5705000000002
306994.4525 2769650.8355 153.5945
306971.0255 2769624.1965 154.2115000000001
306971.1815 2769645.5315 217.2975000000001
307026.6805 2769636.3185 72.66050000000007
306972.9865 2769656.4515 92.57850000000008
306972.4345 2769612.6615 214.8685000000002
307009.0165 2769648.4415 146.7135000000001
307016.2505 2769651.7455 183.8255000000002
306972.0475 2769642.0235 183.8785000000001
307030.6775 2769624.9195 58.88450000000012
307005.1365 2769652.2685 99.66750000000013
306983.7625 2769651.1465 118.8485000000002
307023.1265 2769639.3105 117.4745000000002
306980.2975 2769651.1335 183.8865000000001
306998.4425 2769653.5105 145.1325000000001
307016.4755 2769650.9995 114.2575000000001
307017.6265 2769648.7455 150.6265000000001
307000.8635 2769650.9265 177.7135000000001
307025.6735 2769615.7965 76.72550000000013
306978.9125 2769646.6085 214.8425000000001
306971.5155 2769630.7095 182.8065000000001
307022.4065 2769622.7105 154.0785000000001
306969.1395 2769621.0155 80.65350000000012
307000.8045 2769651.2825 111.8665000000001
306972.3895 2769621.7615 214.9965000000001
306993.6845 2769649.4415 181.2585000000001
307003.0265 2769656.7065 62.85950000000014
306985.7915 2769649.4115 222.6505000000001
306989.9845 2769654.3925 73.2315000000001
307017.8635 2769648.6225 145.7025000000001
307029.8385 2769617.1265 30.00150000000008
307028.9695 2769626.8295 58.93950000000007
307016.0515 2769649.8935 166.8505000000001
306971.7925 2769646.7095 110.4225000000001
307003.6395 2769651.6315 183.0255000000001
307013.8845 2769648.7835 218.1705000000001
306973.1515 2769627.2435 214.9605000000001
307030.7735 2769648.2295 29.96950000000015
306987.5985 2769649.6075 222.0175
306967.4695 2769616.9995 62.0295000000001
306968.7695 2769635.8995 74.49950000000013
307025.2865 2769639.9515 88.26150000000007
306967.3525 2769613.0995 61.96050000000014
306972.6685 2769610.9065 181.2535000000001
306993.1975 2769652.8705 93.19350000000009
307006.9965 2769651.5395 109.9685000000001
307025.3455 2769629.9075 152.3805000000001
306994.4135 2769652.3545 101.6205000000001
307030.2855 2769634.4395 32.59350000000006
307005.8445 2769649.4335 181.2505000000001
306968.5945 2769620.1705 74.70350000000008
307025.0265 2769614.3245 89.41950000000009
307023.0285 2769611.4885 115.2825000000001
306979.5625 2769649.1735 144.3585000000002
307024.0455 2769618.5735 216.7385
306969.2045 2769649.3815 80.67750000000012
306992.8705 2769654.5185 70.99650000000008
306971.7475 2769646.6815 110.4255000000002
307028.5905 2769624.3735 58.5535000000001
306968.6555 2769618.6545 76.81150000000014
307028.8795 2769635.5695 41.63950000000011
306973.3125 2769621.9075 215.0605000000002
307029.5585 2769651.3155 32.63850000000014
307015.6265 2769658.9245 29.93150000000014
306971.9585 2769614.4105 217.3435000000001
306970.8665 2769626.5495 154.4805000000001
306980.2035 2769658.5805 82.71150000000012
307009.3845 2769655.2285 61.94350000000009
307030.5205 2769646.3535 30.01250000000016
307009.9815 2769649.2895 137.3805000000001
307027.8885 2769620.9275 58.37450000000013
307011.0895 2769650.8595 113.8615000000001
307001.0155 2769649.5635 153.5915000000001
307005.9195 2769653.5345 84.28350000000012
306972.7035 2769630.5925 181.2155000000001
307022.5255 2769612.2185 123.0175
307015.1545 2769649.0735 155.4375000000001
306971.9405 2769631.8915 151.1805000000001
307021.9875 2769640.9135 214.9945000000001
306970.6535 2769641.1215 183.8205000000002
306967.4125 2769617.3695 61.96050000000014
306972.4925 2769623.4015 181.1755000000002
306996.4705 2769653.0825 145.2005000000002
306972.3725 2769632.0145 183.0545000000001
306999.8415 2769656.4675 61.67250000000013
306971.0295 2769624.4895 154.3395000000002
306995.8355 2769654.7315 68.09250000000009
307030.7865 2769645.1985 29.97850000000005
306971.3065 2769643.5895 217.4525000000001
307023.5875 2769629.4315 182.7705000000001
306968.6195 2769621.1695 76.65950000000009
307020.1225 2769648.3125 181.5265000000001
307006.9745 2769648.5335 184.6835000000001
307001.0715 2769650.3185 126.7735000000001
307005.4385 2769648.5685 146.3025000000001
307000.2365 2769651.3095 215.0495000000001
306971.7545 2769625.5405 216.9315000000001
307023.7335 2769643.3275 183.8675000000002
306993.6835 2769651.4725 110.3035000000001
306971.1495 2769622.7095 153.7295000000001
306968.0295 2769637.8695 67.30950000000007
307023.0445 2769642.7895 118.8665000000001
307027.5055 2769653.2545 64.07050000000015
307003.9975 2769651.2005 112.5795000000002
306971.7025 2769639.0005 221.4035000000001
307023.7385 2769643.9345 217.4205000000001
306969.8225 2769651.5785 80.58650000000012
306987.4455 2769651.8695 217.2625000000002
306976.7105 2769651.5525 217.3045000000001
307010.7695 2769650.6625 117.2235000000002
307022.4155 2769658.6135 29.9765000000001
306998.6015 2769653.1645 150.0305000000001
306970.8795 2769642.9195 100.9395000000001
307020.7085 2769648.9585 177.6065000000001
306971.1175 2769610.4025 183.8715000000001
306972.0765 2769645.3525 183.7565000000001
307027.8105 2769637.8765 56.90350000000012
306970.5165 2769658.5395 92.57250000000011
306996.5585 2769650.4975 154.3285000000001
306973.0755 2769619.9615 151.2415000000001
306969.2265 2769621.0415 152.4945000000001
306995.6225 2769649.4255 154.1215000000001
306968.0805 2769626.4495 69.64050000000009
307027.8205 2769627.2045 58.4045000000001
307020.3165 2769656.8375 32.80150000000015
306972.8785 2769629.3235 181.2425000000002
306996.7025 2769650.7115 122.5435000000001
307014.2525 2769648.8985 154.2725000000002
307012.3475 2769651.9925 183.8615000000001
306972.2565 2769636.3145 183.6425
306971.7885 2769622.7015 116.5025000000002
306968.1695 2769636.0895 61.95950000000005
306972.2015 2769637.7825 183.7545000000001
306983.3065 2769652.2895 183.8815000000001
306984.3725 2769649.0075 183.2955000000001
306967.3585 2769623.3495 61.9235000000001
306999.0625 2769656.6765 61.64250000000016
306969.3765 2769617.7315 88.97850000000005
306998.2865 2769652.0675 101.6625000000001
306997.5785 2769649.0345 154.4745000000002
307026.8565 2769648.4065 72.27750000000015
307028.3215 2769611.4275 44.32250000000011
307006.9525 2769651.8835 183.5425000000001
306988.1495 2769657.0345 63.82150000000013
307016.9415 2769647.9385 151.2665000000001
306971.5225 2769616.9595 183.4745000000002
306978.8555 2769648.3855 214.8325000000001
306986.2845 2769651.3325 211.2935000000001
306969.3025 2769641.0145 80.68650000000014
306984.4885 2769650.9925 173.4475000000001
307011.0115 2769651.1315 111.3375000000001
307003.8235 2769648.8825 151.1025000000001
307029.8795 2769614.5095 29.96950000000015
307022.4645 2769645.6965 176.4365000000001
307024.8735 2769640.6595 217.4405
306971.3345 2769644.9965 217.3985000000001
307009.9005 2769651.3945 217.4045000000001
306969.5095 2769614.8195 88.2795000000001
306969.2475 2769645.7835 80.6835000000001
307021.3325 2769644.0335 154.2385
306990.1985 2769651.5455 111.0515000000002
306997.3115 2769648.7405 181.7545000000001
306983.6845 2769651.6655 183.9065000000002
307016.6305 2769649.3825 181.2405000000001
307025.6355 2769621.5825 153.4745000000002
307027.9445 2769650.9935 56.91150000000005
306978.5345 2769650.1875 194.3805000000001
306968.6215 2769612.8065 75.56950000000006
307006.4395 2769654.4895 68.01750000000016
307000.2825 2769650.9495 154.0325000000001
307028.2315 2769615.6185 32.55250000000012
307011.5045 2769649.5225 228.0305000000002
307025.7035 2769626.4625 84.82950000000017
307029.7095 2769618.8495 30.00950000000012
306980.2495 2769657.8965 82.77750000000015
307021.7575 2769608.4805 129.0925000000001
306970.9795 2769618.5195 106.1495000000001
306972.3565 2769610.8865 214.9875000000001
306997.3725 2769654.3785 72.79150000000016
307012.7325 2769649.2405 158.4685000000001
307024.1665 2769620.9205 216.3135000000001
307024.6335 2769645.7465 217.2255000000001
307030.5065 2769651.7905 29.96750000000009
307027.6995 2769621.6195 58.37950000000012
307024.3365 2769617.5035 99.63950000000011
307002.3505 2769657.6585 62.86450000000014
307021.8975 2769643.1355 215.0335000000001
306969.5635 2769641.1905 80.7505000000001
307021.3505 2769657.4625 32.56250000000011
306972.8555 2769612.6875 181.2445000000001
306970.1755 2769634.1575 93.15050000000008
307024.5815 2769633.9765 97.56250000000011
306969.3335 2769638.6515 80.65950000000009
307029.6595 2769634.2695 30.04950000000008
307013.0315 2769650.6915 117.1875000000001
307029.9555 2769627.8865 58.90250000000015
306969.8995 2769630.8295 152.4695
307024.7685 2769629.4785 97.35450000000014
307023.6285 2769636.2805 183.7945000000001
307019.6995 2769646.6215 181.2155000000001
307024.0855 2769625.5365 101.6845000000001
307030.2685 2769631.7245 29.93150000000014
307012.3445 2769650.9535 112.9355000000002
306970.9075 2769619.1645 216.8745000000001
306971.4665 2769627.7605 182.7155000000001 1
306980.1735 2769657.0875 82.74850000000015
307016.5335 2769655.3245 58.19050000000004
307022.5215 2769638.3395 181.2675
306971.8465 2769621.7215 118.5085000000001
306969.6055 2769627.6935 88.94350000000009
307020.8755 2769645.7315 216.1725000000001
306972.2045 2769637.5095 183.7765000000001
307024.3685 2769648.9425 106.1905
307023.7055 2769642.8735 183.8665000000001
306967.0305 2769613.0405 61.9045000000001
306970.9755 2769634.2115 183.4275000000001
307012.5415 2769649.5745 163.8495000000002
306980.1505 2769648.9955 148.2615000000001
306972.0005 2769617.3695 181.2415000000001
306970.9535 2769616.2315 183.5695000000002
307029.7285 2769624.9685 58.90750000000014
307017.7555 2769646.9525 181.2455000000001
306972.2425 2769629.6515 216.1995000000001
306971.6095 2769638.5545 183.7845000000001
306977.8735 2769658.5855 92.4815000000001
306997.5335 2769651.5175 217.0435000000001
307025.9655 2769611.2465 76.84550000000013
307025.1935 2769624.9395 145.1445000000001
307024.4775 2769624.3815 154.4085000000001
306970.4895 2769657.0395 92.53750000000014
307028.3275 2769627.7135 59.67150000000015
307011.7205 2769648.9615 151.1475000000002
306998.9425 2769652.0695 101.6375000000002
306974.6465 2769644.1395 151.3685000000002
307029.5795 2769635.2195 32.66950000000009
306972.1735 2769608.3775 181.2235000000002
307026.3845 2769612.5435 68.49150000000009
306972.9295 2769632.2215 181.2335000000002
307005.0585 2769649.3995 215.2105000000001
306993.9015 2769652.8405 97.22750000000008
307024.4215 2769642.8275 102.0385000000001
307030.5515 2769641.6395 29.98050000000012
306973.9745 2769653.8025 84.11550000000011
306972.0205 2769642.9295 183.8585000000002
306982.8705 2769659.3525 82.72350000000006
306992.8945 2769654.9475 67.94250000000011
307011.0925 2769650.6345 173.4445000000002
307023.6925 2769644.2065 183.8165000000001
306973.9835 2769631.8865 214.8945000000001
306970.0495 2769644.9995 89.50950000000012
306971.1975 2769639.5305 217.4825000000001
307006.7575 2769650.9935 114.2865000000001
306966.9115 2769613.0135 61.93750000000011
307017.8145 2769657.1635 32.68850000000009
307030.9325 2769659.3305 29.95650000000012
306970.8255 2769619.8945 183.0115000000001
306974.4035 2769646.9255 144.6045000000001
307023.6025 2769608.6295 183.8895000000001
306972.7135 2769613.1485 181.2975000000001
307023.4975 2769645.1885 217.3235000000001
306996.7655 2769652.5265 97.43450000000007
307016.6065 2769649.2585 160.9535000000001
306969.9885 2769608.3135 183.8005000000002
307024.3795 2769626.0935 214.1425
307001.0985 2769649.3105 225.7105
307025.9325 2769637.7155 81.05550000000005
306992.5785 2769654.5755 69.83350000000007
306971.2435 2769656.1935 92.53150000000017
306968.7325 2769629.6645 76.41250000000014
307010.1475 2769646.5915 184.1255000000001
307015.3265 2769652.2995 217.3625000000001
307001.0325 2769654.4755 70.55250000000012
307025.8495 2769610.0795 75.62950000000012
307029.9635 2769641.9185 32.61350000000005
307021.0805 2769659.1375 30.00850000000014
307025.1795 2769657.2105 32.56950000000006
306988.2285 2769655.9015 61.84350000000006
306990.4355 2769653.1505 93.02650000000006
306971.0415 2769630.9545 216.4945000000001
307023.8775 2769644.8005 114.1995000000001
307006.7635 2769649.6985 214.9375000000001
306970.9755 2769625.8945 214.8505000000001
307010.2385 2769648.8965 186.0715000000001
306967.6595 2769611.3895 66.10950000000014
306970.3175 2769608.2815 217.4555000000001
306968.7885 2769625.0115 76.61650000000009
306972.2845 2769646.4605 217.2715000000002
307022.6385 2769626.4115 118.7455000000001
307024.7385 2769658.9435 30.00150000000008
307025.8395 2769644.7995 85.26650000000007
307019.2005 2769646.7345 214.8335000000001
306969.2095 2769623.7495 80.90950000000009
307023.8505 2769638.8995 217.5245000000001
306969.2195 2769622.4595 84.8995000000001
307012.8595 2769649.2805 214.9885
307014.5755 2769649.3125 160.8625000000001
306976.7605 2769646.7095 184.8155
307029.6265 2769657.1945 32.57850000000008
307011.1305 2769649.2005 156.6295000000001
307024.5895 2769644.2525 217.4355000000002
306991.5735 2769650.1655 150.8525000000001
307012.5955 2769657.6305 63.33650000000012
306972.5225 2769657.6685 92.65150000000006
307025.7625 2769622.8925 82.89850000000013
306972.1325 2769637.6125 221.2885000000001
307002.7855 2769651.1525 113.5135000000001
306993.4575 2769652.0105 105.7845000000001
306990.4725 2769650.9645 117.5155000000001
307025.6805 2769617.6245 76.76750000000016
306976.9595 2769648.5515 173.4965000000001
306983.2725 2769649.1185 151.1765000000002
307028.2325 2769618.7045 48.78050000000008
307019.8055 2769657.1065 30.09250000000009
306976.6865 2769650.1355 217.2605000000001
306971.6955 2769629.3445 182.5015000000001
307008.2155 2769650.4325 183.7015000000001
307010.6365 2769652.2885 96.72450000000015
307022.4375 2769611.3965 120.6175000000002
306970.6225 2769632.8445 183.1995000000001
306997.7225 2769651.1165 216.9915000000001
306976.7205 2769648.5675 151.1615000000001
307022.2835 2769617.5695 122.9695
307013.4235 2769648.8885 222.6365000000001
307022.6075 2769649.5545 149.3795000000001
306999.3675 2769653.3485 154.2445000000001
306971.2895 2769628.1545 154.0985000000002
307029.8145 2769626.5385 58.90950000000009
307029.3395 2769620.9675 58.92050000000006
307023.9395 2769608.7225 102.0545000000001
307014.5725 2769654.1515 72.36450000000014
306971.5375 2769635.4595 217.1585000000001
306998.1385 2769654.5075 70.49550000000011
306976.6415 2769648.0975 148.7395000000001
306996.8695 2769649.9935 214.9175000000001
306967.4255 2769630.6385 61.93050000000005
307011.0305 2769648.3765 215.0335000000001
306969.0155 2769614.1335 79.81550000000004
306970.6585 2769640.1925 183.8285000000001
307022.9395 2769644.8455 183.7155000000001
306968.4575 2769615.7005 61.97350000000006
306997.9985 2769652.1895 216.6715000000002
306997.1145 2769653.5685 154.4015000000001
307030.0505 2769638.2665 29.96650000000011
307016.3275 2769649.0805 156.6505000000001
307013.4925 2769654.4125 69.46350000000007
307001.4375 2769650.8045 182.6245000000001
306971.1995 2769639.0355 217.3925
306994.2225 2769649.7315 134.4515000000001
307006.6705 2769650.9655 116.3675000000002
306985.7745 2769649.1065 151.1505000000001
307024.9865 2769642.0665 93.66350000000011
307025.1655 2769629.5805 152.7295000000001
306971.7155 2769622.5185 116.4145000000001
307005.9795 2769650.8465 183.4045000000001
307027.5915 2769659.3765 29.95050000000015
306969.4625 2769627.1675 154.3735000000002
307003.0175 2769650.4775 181.1935000000001
306972.4765 2769642.5335 217.5105000000001
307000.6605 2769651.2945 179.4425000000001
306970.5095 2769657.3195 80.51950000000011 1
306991.4445 2769650.3505 181.2175000000001
307023.6255 2769617.2675 108.0465
306970.8585 2769636.9635 183.6965000000001
307029.2705 2769622.2445 58.9335000000001
306970.2875 2769630.1545 153.0445000000001
307029.0405 2769625.0055 58.93450000000007
306969.4595 2769615.8795 88.21950000000015
306987.7505 2769648.7985 181.6725000000001
306995.2165 2769651.2225 114.9755000000001
306968.8605 2769628.8455 153.7915000000002
307025.3985 2769643.2375 89.47450000000015
306999.2175 2769651.6995 106.0315000000002
306995.2305 2769650.6165 154.0575000000001
307023.6385 2769645.8575 110.4455000000002
307029.0095 2769646.6195 40.72950000000014
306971.7805 2769641.9695 217.5645000000001
306994.3225 2769650.1275 214.9135000000001
307022.4915 2769636.0545 126.0225000000002
306970.7535 2769632.9035 183.1725000000001
307024.3665 2769619.5125 97.40850000000012
306989.9475 2769649.1625 215.1535000000001
306969.8695 2769649.2395 89.49950000000013
307012.1795 2769648.8005 217.8375000000001
307025.3235 2769642.5625 91.26050000000009
306984.5025 2769651.5645 111.8845000000001
307023.5305 2769617.3255 106.2415000000001
307018.0095 2769646.2755 184.0935000000001
306993.7175 2769654.5075 71.9285000000001
307010.5645 2769650.9335 211.2405000000001
306973.0005 2769638.7115 216.8265000000001
306993.5585 2769654.5605 71.54450000000009
306989.8265 2769655.0615 62.61650000000009
307029.6255 2769621.2535 38.70950000000005
306971.2225 2769616.6625 183.5175
306997.3025 2769650.2465 201.6775000000001
306972.9345 2769623.3045 181.2365000000001
306971.1195 2769635.4195 217.1995000000001
307024.7075 2769628.6425 95.44850000000008
306997.9875 2769649.5215 193.2295000000001
307007.6445 2769648.6525 184.6395000000001
306971.7535 2769651.5885 112.2815000000002
307021.6155 2769616.3615 133.2365000000001
307017.3365 2769650.2135 183.7945000000001
307001.9685 2769648.9665 181.2445000000001
306972.7135 2769658.1425 92.50650000000007
307000.8235 2769649.8385 228.0865000000001
307024.5545 2769621.7815 153.6785000000001
307007.1405 2769646.5535 183.8975000000002
307018.3085 2769657.0435 32.7555000000001
306999.3215 2769648.7015 181.2765000000001
306967.4235 2769616.1975 61.95050000000015
307003.3585 2769650.5995 118.6465000000002
306969.5495 2769613.7395 88.30950000000007
307004.6275 2769649.3825 215.2325000000001
307024.0245 2769631.6685 105.7405000000001
306992.1345 2769654.4405 73.94150000000013
307030.5485 2769647.5605 29.98550000000012
307004.0205 2769649.3685 223.8255
306977.1315 2769659.5405 92.53050000000008
306994.4565 2769650.8735 173.3985000000001
307006.1315 2769650.0335 127.0165000000001
307008.1445 2769655.0575 62.00750000000005
307002.6255 2769652.7865 89.09650000000011
307017.5145 2769645.8175 184.1585000000001
306994.2985 2769650.9375 208.8435000000001
306975.1455 2769649.4265 143.3415000000001
307016.4295 2769648.1145 214.8985000000001
306997.6515 2769652.1365 101.6595000000001
306972.5845 2769634.2095 181.2355000000001
306981.4285 2769649.6125 155.4125000000001
306970.2795 2769638.3195 93.66950000000009
306971.3185 2769645.1285 217.3885000000001
306993.3315 2769655.3075 62.08550000000014
306970.6105 2769644.2505 183.8275000000001
306990.3265 2769649.3235 181.2455000000001
307009.8655 2769652.2655 217.3475000000001
307002.3095 2769651.7435 152.8075000000001
307009.1615 2769657.4235 63.24950000000013
307003.7655 2769654.2305 73.63550000000009
306971.2405 2769635.4005 217.1205000000001
306969.6155 2769643.6205 80.7075000000001
307005.8675 2769650.8605 175.1775000000001
306970.5375 2769608.5005 217.4735000000002
306997.2575 2769654.2055 75.00250000000017
306973.1175 2769631.5875 151.5685000000001
307024.5715 2769636.6315 99.62350000000004
306971.0935 2769634.0925 217.0165000000001
306975.1015 2769645.6115 200.4665000000001
306971.4925 2769626.0045 154.4555000000001
306972.1765 2769637.5795 183.7065000000001
306989.9615 2769649.1775 184.6195000000001
307030.6635 2769627.1535 58.90950000000009
307029.4115 2769628.2675 58.91250000000014
306970.8375 2769620.8565 182.8305000000001
306999.0915 2769651.2985 111.0675000000001
306972.4775 2769626.2295 181.1745000000001
307022.9765 2769646.3295 120.6265000000001
306970.1695 2769615.5595 183.6495000000001
306974.0365 2769630.1085 214.9335000000001
307011.8835 2769654.3785 69.92050000000006
306972.3985 2769642.1305 181.1685000000001
307018.6015 2769648.4745 148.6095000000001
306976.6205 2769659.0395 92.51250000000016
306985.0065 2769658.6855 82.83850000000007
307026.3985 2769649.7855 78.62850000000015
306988.7425 2769654.6135 69.67750000000012
307025.8935 2769638.6175 81.04250000000013
307030.3885 2769654.6145 29.97050000000013
306976.3655 2769648.4065 214.8285000000001
307029.7795 2769614.6775 30.01850000000013
307023.5425 2769609.4745 217.5035000000001
306971.4275 2769626.5085 183.0205000000001
306971.2485 2769626.0105 183.3215000000001
307029.6795 2769648.4805 32.61950000000013
307002.6605 2769651.1915 113.5105000000001
306973.0825 2769618.7545 181.2225000000001
307024.2985 2769618.4165 99.69450000000018
306991.6015 2769654.6645 70.23250000000007
307024.8835 2769619.7155 91.23250000000007
307016.1405 2769648.7175 181.2215000000001
307024.5095 2769623.5425 154.2975000000001
307014.2075 2769648.6935 183.7915000000002
307024.7825 2769657.9435 30.00450000000012
306969.0275 2769623.4555 141.4005000000001
306993.7745 2769651.4455 111.5635000000001
306991.4915 2769652.4135 97.72550000000013
306968.9665 2769619.8565 150.7985000000001
306971.6615 2769637.7715 217.3845000000001
307003.5895 2769651.0145 183.0665000000001
307009.7595 2769650.0705 169.2495000000001
306969.9295 2769629.7595 153.3295000000002
306973.3455 2769610.5485 181.2405000000001
306994.3895 2769652.1665 105.7275000000001
306978.7145 2769646.9235 181.2185000000001
306992.6015 2769650.8815 122.4615000000001
307012.8155 2769649.1625 135.6805000000001
307029.8665 2769618.3495 29.96450000000016
306991.0325 2769651.3495 113.4625000000001
306989.0405 2769652.3575 101.5505000000002
307006.3115 2769649.4555 181.1045000000001
307009.9715 2769651.8125 217.4805000000001
306992.7345 2769658.2035 61.56250000000011
306987.7695 2769649.0585 144.9095000000001
307024.3295 2769656.8795 32.8995000000001
307024.3585 2769614.8815 97.82350000000008
306997.4345 2769651.7545 105.9585000000001
306972.3485 2769632.3425 183.1115000000001
307012.2725 2769657.9735 63.34450000000015
306971.7035 2769609.7905 183.9275000000001
306970.8205 2769637.8885 183.7855000000001
307002.4795 2769650.5215 152.7415000000001
307026.4215 2769647.1595 76.83850000000007
306995.2985 2769648.7125 218.1705000000001
307028.0585 2769622.4165 58.39650000000006
307029.2315 2769613.8745 32.61350000000005
306996.4075 2769649.2255 181.3085000000001
307022.7055 2769645.6435 217.2775000000002
307029.0395 2769622.9935 58.88750000000016
307028.0515 2769617.0425 47.80950000000007
307029.7575 2769658.9725 29.98450000000014
307020.0125 2769648.5115 181.4405
307026.9255 2769649.6065 72.27050000000008
307003.6725 2769650.7415 183.0405000000002
307000.4725 2769650.8275 118.4585000000001
306969.1935 2769627.9195 84.84950000000015
307007.9975 2769648.8215 181.2415000000001
306985.0005 2769657.9005 82.86550000000011
306969.8595 2769650.6095 85.29950000000008
307026.9695 2769618.5395 60.53950000000009
306967.1405 2769619.8845 61.87850000000015
306995.7305 2769649.8995 181.2705000000001
306986.2655 2769648.9265 145.5165000000001
306982.4965 2769650.5315 214.8845000000001
306981.7415 2769649.1945 144.5205000000001
307008.2525 2769648.9755 221.4625000000001
306974.1435 2769643.5605 151.1845000000001
306969.9685 2769619.3865 150.0135000000001
306969.2745 2769643.3855 80.69950000000006
307029.6005 2769650.3545 32.63850000000014
307025.9735 2769636.8015 81.07250000000011
307028.1215 2769657.3665 29.98450000000014
306983.4775 2769651.4845 112.4945000000001
307012.5785 2769645.8075 184.3845000000001
306972.1105 2769611.7725 181.2015000000001
306969.2315 2769625.1415 140.9755000000001
307012.4315 2769648.5245 184.5755000000002
307028.7115 2769639.6185 44.31150000000014
307007.7375 2769646.4465 217.6035000000001
307008.9365 2769648.7045 218.0765000000001
307003.5175 2769648.7345 184.8075000000001
307017.6035 2769654.2815 72.29350000000011
307030.2285 2769627.9655 58.86850000000015
306978.2365 2769648.4265 214.9165000000002
307022.4585 2769620.5365 122.6315000000001
306970.2805 2769626.1795 97.37050000000011
306973.2055 2769644.6175 214.9235000000001
307024.2395 2769628.1465 153.7705000000001
307028.3265 2769627.6705 58.3515000000001
306984.4215 2769650.6115 216.0805000000001
307022.0875 2769628.8315 153.2555000000001
306971.4735 2769628.7305 215.0265000000001
307022.6135 2769614.2115 217.2565000000001
306976.7865 2769649.3065 216.7725000000002
307025.5995 2769613.4735 81.0295000000001
307005.4115 2769651.1915 112.6325000000001
306991.3865 2769656.8215 61.58150000000012
307020.3615 2769647.9925 181.5255000000001
306972.1415 2769646.0755 183.6065000000001
307012.4145 2769651.9435 217.5195000000001
306967.3695 2769622.1235 61.93750000000011
306992.2075 2769654.3155 73.30950000000007
306999.7905 2769658.3705 61.56150000000014
306997.0625 2769651.6805 183.2745000000001
306991.4825 2769654.5025 72.55950000000007
306997.2245 2769645.5015 183.8735000000002
306985.1725 2769649.7655 221.9075000000001
307010.4805 2769650.8015 217.5445000000001
306971.1775 2769644.5585 217.3745000000001
307001.4275 2769653.6105 141.9725000000001
307007.7065 2769648.5395 146.2135000000001
307017.9345 2769650.7515 177.6855000000002
306968.9995 2769611.3995 79.88950000000011
307022.0035 2769633.2095 131.1495000000001
